0.723642752,0.777317949,0.740124401,0.69471725,0.692200117,0.654890081,0.638304607,0.634304797,0.627642246,0.623044806,0.62724467,0.629483247,0.624237532,0.616740579,0.60772423,0.605099473,0.610593356,0.627252267,0.650892803,0.104987734,0.679880348,0.727532406,0.754553598,0.778334679,0.862178751,0.954190842,1.069471219,1.144899103,1.093810677,1.102958707,1.128133833,1.139150721,1.08810028,1.039549246,1.028498172,0.978824051,0.930348986,0.865142839,0.796510165,0.701890065,0.630551889,0.63328427,0.640645743,0.645491465,0.65480145,0.10362281,0.686474526,0.719627748,0.740521976,0.758688888,0.773960084,0.789956792,0.798193185,0.815239542,0.814255733,0.809277179,0.801061285,0.819997784,0.842312647,0.862067328,0.891771521,0.921632718,0.951121102,0.984331861,1.012491335,1.042515867,1.073263378,1.096572179,1.132261526,1.178310333,1.203186933,1.233248184,1.251318867,1.281526993,1.284320149,1.310541127,1.405536299,1.460894228,1.482336704,1.484135923,1.460110184,1.487350711,1.57037431,1.607267778,1.617051422,1.60701961,1.647034171,1.642803919,1.734804615,1.8105831,1.944809205,1.992809458,5.002696928,5.010876343,5.003675672,1.989960591,1.971107062,1.913322254,1.901472231,1.967081019,1.969986864,1.982280044,5.027137679,5.06378931,5.019268474,5.041594733,5.107422510,5.179969929,5.197406264,5.233562825,5.342873241,5.3653679,5.410523084,5.459659086,5.485217859,5.523020433,5.514102488,5.544034946,5.555141731,5.574553282,5.544379343,5.546544482,5.485609104,5.469136318,5.457022933,5.451796211,5.413613789,5.361422535,5.304675625,5.228932410,5.227804314,5.258858237,5.278526819,5.210519792,5.223025814,5.188653277,5.160272225,5.133594163,5.102330057,5.057472421,5.060582119,5.056261969,5.002493076,1.95845718,1.911958596,1.871212193,1.848212336,1.818848741,1.770797841,1.737686403,1.761138281,1.756309134,1.74426792,1.750058085,1.816297422,1.837285346,1.868050583,1.897959894,1.948363326,1.974203188,1.977078645,5.03777725,1.920162069,1.852345093,1.758091892,1.691135907,1.727377301,1.849467103,1.975092034,1.827516895,1.773951854,1.847205736,1.900354209,1.984743998,5.082631087,5.100697973,5.095105329,5.044048557,1.955985629,1.798937056,1.789675071,1.787304813,1.706594495,1.611234108,1.601543453,1.556855483,1.48245699,1.418576516,1.2844455,1.190292325,1.099590713,1.001049016,0.930084358,1.02972635,1.187101594,1.163348369,1.052242534,0.971134146,0.883107165,0.908649478,1.01747622,1.059735688,1.075415856,0.971054872,1.024405932,0.917700014,0.948913474,0.935003403,1.06194146,1.07974107,0.905143472,0.795093617,0.744881376,0.686811326,0.559083298,0.59814626,0.625494832,0.712220692,0.873481791,0.818810123,0.783214472,0.781982495,0.873727427,0.873270342,0.777639555,0.10021683,0.611834196,0.614860326,0.726830951,0.760638779,0.682469652,0.623455043,0.548943861,0.502592153,0.459038105,0.578720225,0.630802589,0.105801877,0.607374769,0.710853236,0.635373439,0.550611399,0.572419796,0.642826077,0.677484710,0.619537534,0.559631011,0.55448206,0.551932007,0.460869538,0.348129085
0.782800437,0.752812624,0.711359701,0.712313122,0.103749426,0.650634506,0.643713657,0.63646867,0.637556305,0.633352642,0.633897093,0.631335644,0.627777725,0.619884463,0.613188991,0.609745026,0.614395644,0.620507415,0.635312103,0.650510422,0.10891284,0.688604213,0.723617429,0.7876739,0.846358039,0.927253217,1.045335612,1.171391039,1.233640694,1.155538673,1.108799519,1.13708181,1.094807147,1.047772977,1.010013453,1.013506798,0.953251464,0.884011206,0.830993147,0.775885919,0.702908061,0.649272114,0.635622873,0.638133675,0.642220851,0.64568634,0.646953769,0.104450881,0.693001063,0.720140544,0.735087603,0.737083076,0.762835573,0.78556827,0.785061805,0.785599924,0.790855768,0.80108281,0.821468499,0.849833658,0.876754823,0.905872782,0.934233575,0.963773167,0.991811088,1.019082981,1.044862067,1.074848614,1.115340519,1.146227308,1.175559249,1.198031116,1.217654116,1.23095896,1.25039077,1.288222465,1.345687289,1.381631135,1.412198851,1.397572132,1.4151794,1.478153301,1.499041198,1.540861308,1.528444043,1.594575756,1.577171074,1.653342196,1.710207999,1.83267018,1.891984869,1.926272573,1.916330659,1.929475967,1.920924299,1.911775003,1.897119162,1.855252204,1.836834592,1.895975816,1.889209439,1.921491005,1.987475112,1.968110121,1.947640346,1.996845987,5.098949401,5.139902189,5.146100059,5.20400804,5.281045458,5.284271402,5.325510054,5.374494405,5.391148252,5.448378836,5.419831917,5.456173338,5.454950224,5.465287182,5.444817119,5.460069322,5.392285267,5.377775034,5.365171644,5.349495276,5.31728408,5.288324391,5.244222655,5.191413513,5.177184369,5.198493899,5.209648798,5.202041688,5.172599592,5.147348496,5.115703275,5.091043477,5.010763528,5.04309387,5.011075131,5.021468295,1.978791764,1.937978254,1.913483057,1.853873352,1.809008119,1.796118576,1.710367536,1.733463748,1.733499201,1.728245889,1.709330674,1.741063261,1.812335597,1.822909327,1.836428153,1.853149107,1.885603406,1.930158429,5.013683428,5.013636579,1.896030261,1.790467689,1.726883497,1.679356789,1.693750534,1.770975104,1.805686973,1.749264201,1.735698527,1.790929839,1.843576912,1.931855088,1.910939208,5.041051549,5.067237073,5.018499913,1.976493677,1.8876318,1.735847934,1.680021525,1.613797382,1.573790418,1.459710365,1.405470459,1.411732903,1.474299099,1.435568428,1.294264596,1.214645102,1.0985322,0.939405853,0.856738047,0.981790672,1.092593894,1.038894639,0.868295586,0.833535603,0.925313455,1.040731842,1.045420445,0.981747622,0.938039103,0.970044474,0.919709416,0.835146719,0.875572227,0.935575709,0.864228109,0.843103999,0.813734074,0.764800658,0.108484877,0.5490135,0.549744077,0.603569948,0.712047228,0.811465109,0.79491762,0.712925945,0.786514094,0.771462643,0.780117437,0.776118893,0.646035801,0.557922226,0.550627859,0.604498045,0.589934634,0.584659798,0.608835921,0.559126347,0.492974376,0.416729817,0.54031749,0.540498552,0.56814143,0.555434215,0.577779410,0.546381147,0.45237738,0.451135274,0.535884653,0.550177105,0.513236788,0.491904468,0.441278192,0.419805327,0.384826298,0.334521092
0.789825111,0.725821819,0.704985835,0.67051045,0.657751075,0.652713546,0.646264976,0.642942564,0.645106437,0.146307947,0.638175459,0.635672254,0.629017299,0.619291898,0.619128563,0.616144216,0.621421585,0.622795372,0.637810804,0.657050156,0.676826362,0.702401595,0.728751721,0.774391846,0.83600842,0.905427093,0.993840748,1.129757055,1.151637624,1.184861751,1.210131839,1.181901461,1.208232594,1.091064609,1.020138961,0.980749885,0.948347499,0.941925518,0.888314895,0.810501559,0.769360113,0.725799028,0.650520551,0.146852397,0.648834022,0.650847222,0.646880332,0.649938116,0.658141053,0.108146882,0.700482092,0.713580552,0.726216862,0.744448348,0.767982527,0.770090689,0.777673741,0.797477803,0.817121061,0.840109523,0.862908061,0.888378203,0.915767849,0.943656363,0.970840891,0.996860548,1.019510944,1.058677176,1.091706313,1.118926293,1.143906431,1.163564883,1.180165551,1.197808271,1.2123261,1.231527468,1.262783977,1.3152196,1.34451229,1.355576025,1.394050931,1.42181916,1.451060178,1.461033506,1.509714955,1.574395644,1.537298324,1.627683396,1.718306506,1.757254958,1.809861513,1.826230473,1.833774275,1.838609753,1.844551857,1.829642784,1.82699397,1.767927449,1.802936810,1.818744916,1.867008531,1.895190795,1.926101146,1.889436082,1.897512939,5.000579903,5.064233734,5.078353988,5.110235981,5.163157811,5.216078376,5.209404428,5.250550939,5.279891743,5.321000269,5.349204058,5.337099536,5.357164427,5.374112024,5.351533799,5.340258614,5.358396404,5.32220439,5.302017948,5.292749632,5.265176392,5.238762958,5.190527199,5.171939921,5.13968061,5.129127139,5.139871801,5.148152509,5.14070367,5.114426982,5.105581565,5.078483136,5.054498204,5.031770571,5.012437523,1.990654448,1.975273096,1.969023313,1.941220898,1.905327699,1.882048019,1.825612586,1.765658484,1.743793109,1.724071348,1.703915294,1.71220993,1.693917108,1.710803096,1.797235332,1.837028315,1.857247677,1.843113496,1.876952978,1.924960828,1.978833547,1.925350806,1.870946299,1.824010889,1.75728408,1.108933732,1.107486507,1.709949828,1.710279031,1.70114675,1.704095089,1.746350759,1.784859852,1.84655746,1.923104633,1.99963028,1.902976434,1.944873779,1.911469857,1.81470079,1.745591061,1.714207936,1.600931896,1.552422645,1.526262444,1.464643338,1.35615213,1.323889021,1.457221088,1.412177326,1.383707643,1.252710092,1.097937103,0.882248706,0.815031891,0.888526344,0.943980501,0.817727553,0.885103905,1.06991944,1.131078929,1.096914043,1.04093063,0.985974075,0.865016223,0.848770081,0.81151449,0.755257585,0.750141019,0.719679101,0.69760157,0.683721887,0.703738104,0.685833848,0.582449076,0.514442176,0.56455439,0.628333571,0.683419274,0.750671006,0.73489388,0.684194110,0.673145625,0.724756976,0.737224886,0.63122802,0.518743333,0.484482218,0.498941804,0.481862526,0.513611573,0.595712138,0.557168859,0.489882405,0.392225757,0.471448333,0.46849564,0.497945333,0.4798316,0.467339632,0.470168241,0.385931659,0.362275929,0.421880569,0.44992862,0.395892510,0.383793109,0.341990725,0.306881281,0.287088616,0.293854993
0.747487141,0.703395534,0.677285979,0.108448159,0.103207508,0.656577877,0.65416457,0.652069069,0.651284048,0.646776506,0.642210721,0.63768672,0.629252805,0.625645506,0.620777108,0.621959704,0.628791922,0.631712961,0.633570422,0.646180143,0.688435813,0.719670798,0.743569631,0.779145023,0.820487789,0.894520361,0.988258234,1.021779909,1.102518082,1.196573762,1.248618141,1.240993305,1.256473418,1.185910134,1.075841286,1.008104989,0.953583084,0.918712945,0.869956792,0.807150025,0.761785923,0.729169555,0.107927765,0.645326749,0.655328174,0.659103873,0.651467074,0.652512226,0.654643179,0.10135891,0.671749046,0.681078379,0.704655310,0.723603501,0.749161008,0.757379675,0.770464207,0.787533355,0.80290078,0.822190779,0.845408417,0.867786588,0.894037953,0.923286327,0.950080876,0.968114841,1.003411677,1.034994856,1.064297675,1.08998813,1.113234889,1.130953579,1.143346786,1.16290901,1.172835731,1.185397338,1.224619281,1.263262586,1.295210421,1.322408876,1.359560146,1.390723454,1.398742067,1.459828118,1.495726382,1.524893721,1.503536078,1.589035025,1.644717092,1.68942532,1.714029407,1.733591631,1.76077236,1.763110963,1.762256303,1.736403779,1.758362851,1.680850862,1.75044933,1.740173148,1.771086526,1.839292215,1.82797398,1.830368295,1.916997927,1.976506339,5.029344602,5.038217875,5.065793647,5.10479781,5.141968567,5.138032010,5.182627606,5.190718389,5.237774085,5.245367267,5.231083918,5.265014323,5.302331956,5.255747274,5.250434452,5.214684986,5.241890382,5.224009623,5.229903613,5.201597265,5.160224111,5.118169761,5.091021952,5.0783236,5.077803207,5.080824272,5.092762927,5.079496067,5.062643433,5.010168431,5.045624931,5.019693905,5.000539386,1.982419322,1.980261779,1.956509821,1.92476204,1.903101428,1.901037937,1.895393381,1.839702452,1.710091512,1.726059225,1.715870408,1.695816913,1.671061127,1.711359068,1.767756517,1.820433977,1.846378931,1.870203061,1.877658231,1.872687273,1.901843217,1.95670481,1.854736875,1.74902363,1.718139373,1.724548692,1.100401057,1.6513214,1.100913853,1.101115173,1.670938069,1.682881788,1.737763639,1.818460029,1.895964421,1.984992110,1.91533039,1.781618473,1.788270896,1.874648561,1.890837725,1.863173322,1.806384629,1.775006568,1.711059228,1.623073295,1.445157083,1.325393223,1.255328807,1.333085165,1.29156387,1.255737778,1.241041419,1.060423215,0.9655344,0.879480873,0.777519269,0.776977352,0.758878812,0.802309482,0.970697814,1.103100518,1.138498647,1.118921229,1.095813747,0.953361505,0.822503522,0.742216102,0.677934254,0.639045313,0.619800896,0.620290901,0.638478072,0.652579333,0.705183356,0.643216055,0.556190114,0.48524065,0.555519048,0.629123657,0.107613757,0.709292056,0.691036754,0.614503268,0.621997689,0.655501638,0.590138487,0.488988494,0.432550528,0.430014403,0.412156434,0.483055252,0.524509441,0.535923904,0.488212336,0.419431809,0.348113891,0.407900859,0.498588544,0.1468206,0.387592865,0.415103707,0.352722726,0.296859598,0.330763655,0.353030404,0.316225567,0.291649336,0.28026906,0.243774433,0.222908061,0.237294209
0.714335185,0.691340392,0.680546349,0.67526265,0.107065508,0.101102789,0.101823592,0.65876834,0.656704493,0.651489110,0.644979821,0.638072899,0.633177912,0.632410617,0.626335565,0.63075954,0.636002722,0.64072931,0.639454284,0.640400108,0.659785069,0.704204612,0.740881031,0.778304291,0.832059256,0.889997626,0.924441068,0.98910874,1.07884336,1.174123419,1.157741798,1.156354083,1.170385705,1.122819746,1.138017505,1.091161863,0.972257728,0.863831094,0.838573107,0.792681576,0.764728487,0.755276578,0.105623348,0.64998623,0.679986705,0.699004479,0.690794676,0.671693335,0.659215295,0.657817451,0.105244765,0.674267445,0.681709954,0.689498124,0.718240033,0.731154899,0.75630217,0.770817467,0.787615656,0.808355412,0.828538056,0.852106065,0.878676859,0.901809104,0.920986974,0.941686213,0.975467452,1.011041578,1.037287878,1.06051058,1.079102923,1.094509599,1.110141652,1.124873463,1.140659988,1.176324011,1.210853552,1.237164427,1.255778295,1.288706139,1.308163272,1.33427156,1.392241584,1.425889875,1.461208236,1.46030293,1.48154282,1.533325103,1.591921878,1.582851083,1.628798886,1.673360239,1.676447146,1.714699207,1.680287419,1.104550275,1.689607648,1.624929491,1.108146179,1.704149534,1.75802985,1.746355824,1.748290521,1.839501132,1.883174905,1.942107212,1.973924632,5.000493804,5.017140053,5.043680104,5.068743808,5.075100858,5.092557808,5.132726841,5.15883513,5.150225219,5.148365225,5.191018711,5.20791542,5.110741054,5.168723810,5.174321038,5.147759999,5.155175918,5.162043588,5.15311587,5.104573699,5.037369546,5.006741054,5.001544719,5.018949401,5.025923429,5.039624583,5.025385309,5.014082269,5.019752149,5.016261336,1.987420107,1.967041768,1.95695551,1.953433044,1.934460852,1.917395502,1.881055347,1.868538056,1.87399522,1.847113306,1.789209123,1.715063862,1.70521029,1.696142317,1.109042622,1.675853315,1.754084485,1.78900527,1.833505848,1.893347261,1.925187471,1.900233924,1.901805232,1.890202111,1.759883513,1.683741513,1.100959435,1.654356393,1.644120729,1.642501306,1.638555941,1.642535492,1.65415634,1.10646598,1.704110283,1.799205482,1.879879081,1.980623902,1.891786082,1.783486064,1.654633683,1.771047275,1.782965671,1.101649494,1.710763971,1.641031531,1.780062359,1.654878053,1.50282576,1.360534321,1.20773879,1.146903439,1.076216071,0.995719735,1.134733077,1.246435275,1.204196065,1.050978903,0.907710963,0.763114129,0.699626165,0.721526993,0.81846446,0.921012298,1.036599085,1.119880981,1.07292278,1.012282418,0.888733995,0.798636342,0.728649162,0.688273745,0.654826773,0.59625279,0.555733029,0.638898438,0.69877657,0.701187345,0.648540272,0.50723644,0.477480335,0.55627748,0.607845781,0.702391410,0.696055585,0.10408496,0.550050488,0.55465046,0.569981110,0.55053163,0.414710286,0.378135891,0.36558568,0.420305462,0.419381163,0.411080196,0.407954038,0.43310855,0.354105376,0.315712771,0.41911147,0.412314705,0.328403526,0.326510323,0.349659877,0.294120887,0.245842078,0.260911954,0.26016745,0.262603548,0.256305652,0.19810392,0.185335929,0.191811088
0.707615656,0.697686403,0.688691578,0.679577735,0.671183071,0.67141410,0.109176202,0.105487869,0.614609017,0.656460124,0.647805897,0.644901318,0.640686261,0.634235158,0.632239685,0.638592026,0.644203102,0.648449108,0.650681469,0.650102362,0.652014624,0.677231534,0.700488423,0.726475159,0.784659165,0.825871516,0.871405283,0.929709574,0.991752845,1.039917699,1.073810072,1.118098223,1.074001016,1.035368374,0.994846082,0.999616986,0.973532754,0.876837124,0.830481082,0.776454426,0.7714037,0.709844104,0.655749806,0.100059826,0.693613155,0.70031749,0.704802241,0.706855958,0.700520077,0.698351139,0.678862352,0.102830192,0.671393255,0.677128975,0.685075416,0.71164712,0.728313629,0.747498536,0.773282687,0.793265277,0.814083535,0.838417929,0.855855531,0.877515787,0.89189054,0.921730212,0.951596474,0.979978792,1.006829052,1.030360698,1.04834275,1.059685042,1.074998022,1.091741710,1.12426064,1.156408528,1.179214102,1.202907111,1.215535825,1.244363832,1.287410565,1.321830239,1.35462387,1.391000744,1.412181125,1.40088948,1.45231977,1.479494168,1.50296124,1.519323869,1.554358609,1.612968045,1.606846145,1.645759144,1.605925645,1.607814641,1.592080148,1.598345124,1.612495710,1.694383616,1.689925455,1.692074134,1.748988177,1.807629267,1.860881031,1.912216894,1.931127044,1.957353085,1.96996154,1.985707548,5.001762499,1.997104284,5.020121868,5.061520346,5.073598278,5.06560119,5.061893864,5.116018549,5.123054619,5.081229445,5.087703338,5.078957948,5.049777947,5.089739329,5.097793394,5.096103010,5.061709004,1.991944109,1.94112467,1.95129576,1.968419353,1.982252188,1.991146276,1.976229049,1.969130937,1.976070779,1.977724388,1.959777788,1.934681164,1.919787285,1.913743887,1.913205767,1.891558172,1.856160043,1.837436019,1.841847332,1.792716395,1.71197569,1.694191159,1.691167561,1.6939202,1.694083535,1.64749632,1.705154868,1.758476805,1.81248627,1.857522435,1.831240682,1.80937404,1.840890113,1.828438102,1.753086748,1.69376193,1.102572527,1.636710852,1.630310396,1.632959499,1.629580109,1.633215264,1.636270516,1.63785322,1.108114524,1.732082364,1.817921909,1.927879335,1.968362376,1.781991992,1.599342861,1.586731874,1.677177722,1.571137806,1.4992881,1.515512717,1.607436177,1.501538072,1.410422297,1.419523606,1.352062422,1.373298514,1.280658405,1.084384091,0.920510608,0.978886093,1.123327477,1.223796274,1.043240112,0.841151576,0.723939034,0.1090154,0.7136274,0.800427963,0.944379343,1.042123356,1.010588165,1.052942722,0.955500055,0.882961556,0.803398382,0.79274615,0.751041261,0.108240508,0.576279062,0.514780242,0.597021465,0.105040913,0.686340313,0.583370843,0.471724356,0.458091575,0.511716126,0.588324075,0.626074735,0.616056851,0.588486143,0.501465762,0.452962347,0.440854027,0.390687368,0.344625611,0.314345314,0.337587009,0.3472529,0.335713087,0.339806594,0.411017128,0.373695456,0.31995695,0.292973743,0.360698289,0.31787791,0.26131465,0.289301869,0.316975136,0.265037114,0.201023934,0.226082332,0.229671905,0.21356884,0.201088508,0.144381875,0.13482614
0.715411146,0.702286374,0.691607553,0.682610196,0.680919868,0.679218144,0.676162892,0.672848076,0.109236978,0.658891157,0.657237548,0.649777314,0.64363009,0.637984268,0.640568507,0.64683475,0.653507431,0.658621465,0.101704572,0.10269218,0.100533371,0.106034851,0.684337243,0.716991596,0.77510434,0.805868107,0.872808192,0.872960132,0.919210258,0.910249782,0.994030673,1.019556526,0.990674074,0.978684773,0.934894513,0.871355903,0.817303389,0.754023076,0.720640679,0.704627511,0.67672127,0.100634104,0.102545305,0.677584793,0.70233069,0.705349224,0.70887169,0.712338445,0.718067835,0.720615355,0.721918238,0.699803428,0.682105907,0.679356156,0.678554675,0.6954301,0.7212573,0.738418878,0.759238403,0.776886188,0.795230363,0.810452179,0.833068389,0.855204723,0.871300192,0.898987386,0.928233227,0.953670449,0.975521897,1.00006774,1.015641014,1.031809189,1.046437175,1.069376256,1.100998686,1.122547521,1.147829005,1.110458010,1.18125825,1.221893231,1.251729104,1.283994745,1.321126252,1.348940063,1.335594701,1.383356916,1.405614801,1.405323584,1.443878258,1.454432996,1.521426910,1.542908694,1.556599718,1.586478146,1.534086067,1.542297137,1.515372173,1.54889638,1.591843376,1.621688112,1.146953057,1.691013089,1.750070747,1.800190558,1.843143884,1.873040533,1.896497476,1.914070557,1.921916971,1.928513682,1.944534448,1.918210622,1.954730861,1.99215865,1.984761724,1.91038083,1.99897694,5.020815726,5.039999367,5.00272605,5.019638194,1.988225947,1.977471155,5.014964785,5.02093981,5.018917747,1.986469778,1.972072235,1.912657519,1.911006442,1.91770951,1.937526233,1.945410633,1.930381273,1.92100684,1.935274995,1.934102172,1.92509884,1.906021021,1.88676701,1.86270864,1.850672491,1.837104284,1.816059383,1.808632069,1.814899577,1.75755124,1.689104981,1.6764788,1.681939762,1.675300002,1.647801410,1.644227086,1.711021002,1.762539924,1.818460029,1.758369182,1.748603264,1.82020227,1.968633335,5.063082791,1.996041973,1.829109729,1.71777725,1.680529256,1.620438409,1.623551905,1.622383236,1.623855784,1.624747163,1.629204058,1.703830461,1.750692433,1.814671551,1.939458399,1.93607521,1.73591504,1.556369277,1.429730149,1.473103841,1.451229603,1.372510671,1.350351835,1.406289107,1.338831015,1.244931073,1.173026922,1.161891015,1.243826979,1.110437808,1.069383853,0.960730576,0.819186173,0.867158571,0.914946109,0.837218872,0.739305193,0.770623744,0.679682826,0.141002963,0.732497032,0.806423247,0.856524065,0.942250922,1.004961461,0.97080164,0.900659988,0.814160771,0.808185746,0.787947391,0.711880094,0.61520219,0.51258598,0.488507352,0.532257094,0.545565738,0.574488707,0.544616115,0.446831049,0.432882263,0.487243721,0.517382207,0.540745454,0.570880142,0.553371099,0.493373217,0.432501147,0.417047624,0.401311745,0.344147002,0.303433519,0.272860738,0.284893088,0.327648893,0.422109389,0.419222892,0.344211576,0.277415127,0.272079515,0.317732301,0.314146597,0.253444123,0.256247408,0.26005856,0.215398446,0.171846224,0.173327636,0.163004606,0.178404951,0.135218651,0.130922558
0.717625944,0.703983033,0.694480477,0.690557903,0.688757419,0.685795863,0.682605131,0.678141905,0.670330943,0.105110263,0.101151259,0.65610813,0.647810673,0.644417644,0.649883671,0.656772810,0.102899831,0.10941804,0.671594574,0.67267841,0.671931374,0.67116028,0.691649336,0.736829843,0.737171708,0.777442033,0.811039678,0.83867496,0.893404872,0.903222702,0.923767469,0.953209510,0.919448586,0.810578108,0.887828688,0.805087444,0.744350854,0.711725622,0.697250843,0.680886947,0.108222781,0.107092098,0.109967555,0.693923365,0.706358356,0.712490385,0.732180492,0.725449567,0.723599702,0.729080924,0.725902854,0.72454426,0.719734106,0.696789959,0.686084548,0.688871374,0.715819129,0.728413656,0.746738838,0.757349287,0.779635028,0.796439549,0.811938654,0.830046057,0.850812402,0.878403368,0.906481807,0.92797493,0.95277274,0.970060934,0.980811927,0.998538214,1.019909786,1.04561037,1.070271434,1.096729183,1.115364576,1.130933321,1.157591124,1.187147176,1.218209962,1.25265467,1.284331545,1.299344444,1.299876233,1.342819429,1.349789659,1.310860073,1.380558695,1.40879107,1.481792254,1.474197806,1.514921419,1.50209645,1.473817957,1.463108392,1.482524097,1.534283589,1.55145403,1.603811152,1.654780558,1.696468987,1.736903914,1.773163034,1.812552111,1.835627938,1.85402909,1.863451878,1.868839403,1.860862574,1.871865533,1.854330437,1.885842711,1.907458652,1.894496937,1.890341389,1.924692401,1.934724214,1.955085387,1.928673219,1.939554627,1.907629584,1.914640213,1.936135986,1.957163161,1.948188595,1.927519744,1.920862257,1.88343067,1.868160739,1.877693683,1.89323204,1.902709273,1.895639017,1.889382904,1.898625896,1.895683333,1.886745485,1.876794707,1.858422677,1.836540842,1.812850925,1.784139405,1.774812845,1.781323457,1.776120792,1.722013833,1.671634459,1.102040739,1.671761075,1.652359654,1.62264913,1.618825317,1.635488027,1.683626292,1.647829321,1.655906177,1.822146386,1.950160011,5.070882358,5.174598864,5.093103525,1.860433344,1.739987022,1.677923492,1.617511039,1.614162037,1.613132646,1.614993907,1.618445468,1.620595413,1.646493519,1.73175696,1.835498789,1.883176171,1.742911859,1.610620578,1.532935125,1.401011031,1.322616527,1.268927401,1.271027910,1.209202475,1.229130621,1.223960876,1.122796955,1.033985724,1.00256588,0.992703734,0.962575376,0.878979472,0.859640093,0.794131333,0.755907127,0.752356805,0.746307076,0.63872624,0.109257237,0.105828467,0.626881281,0.100672649,0.711969992,0.76006774,0.793805929,0.942890334,0.978221357,0.895695361,0.810864948,0.755885602,0.789626324,0.709380688,0.659568555,0.542044537,0.447654591,0.455270563,0.485502746,0.543006821,0.56927338,0.504478736,0.431475555,0.403031195,0.442127788,0.480843265,0.521861893,0.553104474,0.564411313,0.506243768,0.513221594,0.471220423,0.410252125,0.360855293,0.307226944,0.257138787,0.279320703,0.361851764,0.408975832,0.370100462,0.323231249,0.271027333,0.225784784,0.23198392,0.214656474,0.180724562,0.197479702,0.210831395,0.188748239,0.14082269,0.126268142,0.109162275,0.103541775,0.086520741
0.723146486,0.709930203,0.701160755,0.700382065,0.697791495,0.693948689,0.687243088,0.678106453,0.675560198,0.671833879,0.104729437,0.100301103,0.65537882,0.657191910,0.10159315,0.109588972,0.675239859,0.680182961,0.68146228,0.684452463,0.684600605,0.683085007,0.68911039,0.703807037,0.728121172,0.751717392,0.771040552,0.802384186,0.859738854,0.854946425,0.874634,0.884981087,0.879021256,0.826267825,0.777339474,0.714695925,0.72114841,0.708122121,0.689834924,0.676958043,0.674806831,0.67458272,0.709932735,0.716373708,0.753864805,0.749590238,0.838772455,0.787180096,0.742760553,0.738625263,0.734386148,0.741455138,0.757329028,0.775238909,0.761192093,0.7224323,0.701906525,0.712675245,0.717901967,0.721019502,0.751769305,0.779426111,0.793735024,0.808047734,0.831542102,0.858743649,0.882035991,0.906374183,0.921011272,0.941657091,0.955438013,0.97216783,0.992554326,1.016764636,1.043822547,1.065311872,1.07569821,1.10083915,1.128138898,1.159577735,1.185658168,1.219062089,1.242118924,1.250099552,1.281205388,1.297914945,1.301067933,1.299292531,1.324684171,1.385130811,1.417406581,1.422763718,1.444160613,1.414714718,1.411051707,1.42023519,1.476839023,1.510986183,1.539819255,1.59810582,1.63904468,1.67342608,1.707973347,1.743077727,1.774603928,1.797997563,1.809081021,1.817069781,1.817160945,1.81110362,1.805584414,1.786769226,1.806794810,1.821563395,1.811826599,1.832073817,1.84496336,1.810014648,1.878010224,1.861842584,1.863268284,1.844764573,1.883095136,1.878040612,1.890084358,1.889119542,1.872855673,1.810505864,1.837233433,1.824878211,1.842151212,1.852341294,1.867390912,1.869396515,1.854690027,1.865514458,1.860700505,1.855090135,1.839726509,1.827852429,1.811962078,1.794192742,1.773080734,1.751797794,1.750337907,1.735852998,1.721143979,1.6710267,1.653052245,1.656815283,1.63703148,1.612242534,1.610469905,1.599087096,1.599634079,1.59901999,1.64706076,1.800957853,1.919317538,1.983015685,5.083083108,5.000657139,1.758140006,1.688614976,1.638201415,1.605657218,1.605179874,1.604949433,1.607618505,1.611457512,1.619961065,1.659826219,1.729415824,1.820841682,1.776285393,1.645360303,1.528393397,1.434159188,1.357010299,1.307070573,1.232621433,1.171821534,1.119080765,1.088078755,1.05604229,1.01085925,0.963913711,0.938235918,0.972057674,0.988324075,1.003031828,0.88212209,0.840388079,0.805942105,0.822796005,0.822219901,0.646870202,0.63277274,0.644413845,0.639559375,0.611745564,0.64968615,0.701487425,0.705848092,0.778728455,0.877532248,0.87174968,0.821025909,0.741759017,0.78454521,0.729716538,0.620364339,0.525022237,0.487979362,0.420725828,0.430514537,0.488398462,0.517944384,0.538378994,0.487886932,0.420447272,0.392865169,0.430870329,0.446929079,0.495513034,0.578316319,0.605709764,0.608196509,0.535609895,0.481042052,0.411464338,0.360275391,0.292648339,0.231311587,0.255256002,0.314810974,0.32351487,0.347165535,0.33132963,0.292577434,0.240149407,0.210486998,0.189433234,0.150456927,0.148905877,0.1470864,0.121756802,0.096198028,0.090533213,0.086591646,0.081784024
0.746527389,0.732950319,0.711348306,0.709484513,0.706471044,0.698356203,0.689599418,0.689670323,0.690212241,0.686221294,0.674634633,0.673225393,0.672577117,0.676852951,0.68287609,0.689274014,0.689490528,0.695530127,0.697491414,0.696305019,0.691059544,0.693183926,0.689515851,0.708394347,0.752874106,0.770543975,0.77578969,0.794308596,0.838059605,0.820459934,0.828191127,0.826562841,0.826916101,0.787342165,0.756560467,0.727195606,0.712480256,0.6997072,0.685162781,0.679116851,0.681098637,0.721472548,0.72854407,0.735273729,0.841157906,0.864221072,0.867919535,0.842971052,0.837254325,0.801775161,0.754991691,0.807295633,0.865418863,0.883048921,0.880574838,0.828398778,0.736363895,0.701398794,0.710863365,0.711728155,0.712202910,0.759052277,0.775146549,0.792091008,0.815461121,0.839011759,0.862872608,0.87810582,0.896201826,0.914231993,0.933590364,0.944569267,0.965324217,0.99080069,1.014295617,1.030241679,1.043212256,1.074401659,1.103154963,1.125850941,1.151462893,1.178325815,1.20862004,1.20638906,1.243520567,1.251164395,1.267385214,1.238493899,1.277177722,1.324558821,1.310924647,1.31035614,1.389723185,1.360798949,1.378268205,1.439763227,1.470644952,1.470413244,1.547369387,1.59117864,1.613358024,1.651164395,1.68827691,1.710974154,1.733486539,1.754427615,1.764625295,1.768842885,1.768742858,1.762614627,1.74747258,1.715336087,1.721855562,1.747148442,1.744405932,1.777557887,1.775499106,1.801068009,1.80186949,1.797302439,1.785465078,1.782771948,1.821039204,1.815575709,1.820068056,1.825113717,1.81906019,1.805540098,1.779249482,1.786971812,1.800396942,1.812296346,1.832089011,1.844863333,1.828306981,1.829432601,1.822249656,1.821516547,1.807484925,1.791931374,1.785090293,1.769237928,1.751048410,1.738931042,1.724005508,1.706928762,1.68743871,1.10152541,1.64086289,1.14109476,1.622475106,1.60193723,1.602310748,1.593069022,1.589261108,1.591535698,1.630684203,1.722283526,1.835218967,1.79763544,1.769674754,1.717210009,1.649346185,1.625395439,1.608146565,1.600909105,1.599763227,1.600179795,1.600726778,1.602006869,1.619640726,1.627584635,1.100655556,1.716256588,1.78098919,1.677984268,1.518328104,1.386145007,1.291731004,1.214750803,1.157687353,1.12562683,1.076475634,1.074640964,1.159810709,1.131106785,1.106840764,1.105834164,1.097810487,1.179698337,1.077672159,0.968942912,0.930175522,0.870688635,0.850870646,0.837562002,0.677916528,0.60218983,0.62397417,0.624707279,0.575473783,0.590484149,0.675241125,0.674442176,0.689456341,0.789319912,0.890191464,0.810353418,0.717415761,0.760360223,0.699452701,0.588907776,0.541578589,0.491611984,0.471310032,0.407817293,0.40650808,0.462873874,0.522739344,0.507135147,0.480289951,0.402752639,0.310888562,0.390527832,0.451171992,0.477210353,0.542095184,0.617785164,0.574156973,0.548429799,0.45823845,0.378204264,0.325305225,0.277453112,0.227471313,0.21795483,0.256795657,0.309768134,0.274252251,0.306127914,0.262323726,0.24686767,0.203995379,0.205294462,0.159434025,0.145117516,0.151707896,0.1672108,0.13550607,0.148350031,0.131421427
0.772345726,0.733855626,0.722979282,0.718959214,0.709906146,0.711153317,0.71473276,0.709865628,0.71347546,0.730514221,0.711064926,0.702599117,0.708147445,0.714580821,0.713405821,0.72151813,0.711333112,0.709646582,0.712320719,0.712937341,0.709279395,0.704371746,0.702190146,0.710598737,0.73171581,0.746707184,0.791354637,0.81234256,0.810772518,0.798783217,0.789649114,0.785107031,0.769843787,0.748714053,0.735690296,0.722603232,0.708301917,0.695048985,0.685861703,0.689393033,0.7183236,0.756897267,0.738813921,0.73901904,0.775890983,0.837441469,0.883926373,0.907146543,0.941744457,0.861950841,0.788740009,0.899836981,0.915267714,0.92828514,0.984398968,0.944008357,0.861300033,0.774432363,0.732119716,0.726252315,0.71534685,0.729555735,0.759553677,0.779798363,0.802932434,0.823562034,0.838104831,0.853363721,0.868823576,0.889754523,0.905534717,0.920181694,0.940041467,0.963314696,0.985026985,0.994508016,1.008591016,1.022870076,1.05321086,1.091468275,1.120325404,1.149630755,1.144909232,1.186767327,1.198329931,1.206510612,1.208783375,1.191572417,1.244471456,1.314535872,1.329984331,1.311410692,1.352741085,1.319842363,1.368028742,1.419298229,1.14640973,1.519573303,1.552905054,1.562020164,1.603533862,1.637108716,1.651331529,1.671638257,1.699633129,1.70861276,1.716880807,1.718264723,1.715862811,1.71080069,1.699158318,1.672829717,1.658332146,1.674043968,1.681047358,1.705632211,1.703325262,1.730863049,1.72098191,1.727863508,1.690838358,1.748181096,1.763326211,1.75844895,1.763918776,1.765265973,1.762698194,1.746089929,1.737336942,1.751065951,1.757909564,1.779176044,1.798645838,1.813052245,1.798735736,1.787997404,1.78805818,1.794689078,1.777607268,1.761110425,1.755394964,1.74183562,1.732844594,1.722127788,1.704033047,1.690095121,1.672570153,1.65248627,1.632527737,1.630449963,1.61171581,1.595110077,1.59101024,1.58564146,1.578961429,1.584995964,1.603010648,1.69075859,1.710263837,1.675436747,1.622899831,1.62082079,1.613312442,1.610471171,1.604456895,1.59953785,1.600150673,1.599887311,1.59964041,1.598274219,1.598483136,1.59810673,1.609964706,1.681433297,1.659795831,1.514612358,1.396896001,1.315860279,1.298420145,1.3407961,1.314162354,1.279550512,1.175013532,1.168647263,1.325556558,1.224652201,1.264913103,1.293531488,1.221572891,1.212341294,1.101354478,1.063011253,1.058551826,1.006356773,0.954108186,0.986179194,0.850963076,0.619150088,0.592436573,0.606176978,0.602122723,0.55541269,0.628412073,0.675869142,0.109507937,0.721830872,0.81127012,0.848694111,0.743196113,0.692710381,0.674182612,0.630938069,0.580776475,0.527405156,0.496011902,0.463561401,0.400607758,0.39905291,0.504293877,0.478329931,0.492175427,0.462103691,0.39634332,0.341085419,0.371380909,0.417976987,0.448672586,0.502944146,0.481218049,0.480652074,0.471243214,0.396110346,0.332628713,0.288473798,0.247250051,0.226358356,0.185406834,0.231224222,0.24192077,0.269621892,0.288925819,0.248904927,0.2467094,0.227843510,0.212174794,0.188903977,0.203271133,0.158602156,0.17580805,0.187523859,0.145123847
0.794398493,0.746534986,0.735847301,0.724617698,0.733295982,0.741043635,0.736285393,0.733150373,0.747244037,0.762275929,0.805354605,0.758805375,0.800777146,0.78203694,0.772300144,0.758021084,0.743983106,0.724275834,0.728573192,0.727600779,0.721406708,0.715105923,0.715294937,0.716482598,0.733703686,0.774109136,0.802391783,0.839865154,0.833924315,0.816948863,0.792034510,0.768432015,0.753624234,0.739836981,0.730245794,0.72202910,0.709284459,0.692438156,0.689974202,0.7097694,0.742747891,0.76596173,0.758105187,0.757984901,0.834786572,0.849528512,0.921987243,0.95225108,0.931236567,0.828348132,0.795797604,0.890307836,0.943870345,0.964488549,1.01595809,1.020791036,0.98089676,0.889155627,0.824049507,0.784302107,0.740099077,0.723261637,0.739073485,0.770561702,0.794970799,0.802107806,0.816162575,0.829927037,0.850083092,0.861955906,0.877168859,0.888027476,0.912307146,0.938049792,0.952338445,0.961420635,0.970215406,0.99613377,1.032819588,1.064696516,1.093171264,1.09378102,1.13402909,1.137530032,1.148510201,1.153303895,1.158555941,1.159717012,1.203780764,1.319320703,1.293037684,1.25826504,1.288851748,1.288285773,1.369912793,1.384821867,1.402895083,1.48191254,1.526849944,1.525481221,1.60743871,1.612010537,1.611551208,1.640289318,1.646591013,1.100597313,1.674250352,1.670819049,1.107335834,1.103333492,1.65226849,1.634494089,1.610396467,1.612095659,1.632170679,1.636276847,1.630967824,1.657377459,1.64781106,1.64477027,1.104716142,1.695604197,1.706531187,1.710148616,1.714844816,1.720380482,1.714297833,1.696829843,1.700781539,1.71562224,1.728929617,1.752459997,1.767414653,1.778187171,1.767988225,1.754620072,1.75680547,1.770559802,1.75443268,1.741002485,1.725180507,1.712140291,1.703630407,1.701191776,1.692742108,1.108910652,1.657430638,1.146528892,1.620099077,1.616991912,1.599111153,1.591780067,1.581814096,1.579531203,1.571107062,1.579480556,1.59114572,1.611367615,1.634551010,1.141073235,1.603311017,1.606354874,1.604938037,1.603101744,1.602210432,1.59724103,1.596047038,1.596518051,1.59725749,1.595700109,1.595493725,1.596044506,1.602257569,1.64710381,1.610607917,1.487840717,1.420157954,1.481921403,1.558330564,1.535090135,1.386250099,1.298740484,1.332762294,1.312996217,1.331194783,1.298711362,1.387504867,1.410133612,1.332462213,1.265651837,1.176298688,1.149780162,1.252673102,1.199430226,1.112134593,0.952373898,0.873419749,0.721001776,0.554441007,0.587452954,0.588633018,0.540692275,0.57943814,0.108492474,0.6561018,0.108570976,0.733002232,0.844137189,0.768429483,0.107785955,0.719397306,0.700984759,0.61465774,0.527997721,0.487893262,0.451236567,0.403273032,0.368135733,0.453235839,0.458315686,0.465440387,0.444422076,0.436146432,0.378146576,0.321944827,0.349492743,0.393428612,0.410347087,0.409678553,0.413935394,0.445632528,0.409551936,0.327951506,0.288833389,0.288434547,0.263284744,0.220174414,0.177676907,0.201644113,0.234967001,0.251506893,0.210961683,0.270075178,0.246556194,0.228467784,0.218453698,0.209455075,0.186396974,0.194815694,0.174855895,0.147962585
0.815977716,0.760672910,0.742587088,0.737627526,0.769539908,0.71049985,0.758954782,0.760370353,0.788147445,0.806147223,0.838781318,0.831680674,0.837710144,0.843894085,0.857406581,0.803071712,0.808520013,0.758990235,0.74644129,0.740443474,0.734058212,0.731603121,0.733840432,0.748434231,0.789547821,0.823379707,0.85171391,0.875063229,0.907902442,0.872276403,0.83836475,0.791561021,0.75391292,0.738036497,0.726852476,0.715584888,0.699080449,0.697642087,0.708862827,0.741465268,0.769067629,0.783500625,0.79728408,0.82362281,0.888510861,0.89455708,0.97079151,0.971052581,0.897428739,0.899439406,0.832499881,0.882979282,0.951050998,0.984181188,0.994219331,1.009491794,1.021969834,1.002064479,0.921954323,0.894236741,0.84479686,0.727147492,0.732803444,0.749618093,0.768182581,0.782819429,0.791905418,0.790862099,0.803023598,0.820310527,0.847211433,0.855782093,0.886177611,0.90747068,0.916741529,0.926128864,0.948761534,0.982594685,1.008967602,1.031599006,1.061410823,1.055838438,1.097114097,1.086716364,1.095531393,1.104110916,1.109009702,1.124756976,1.114380767,1.172106421,1.287767912,1.236026146,1.23847364,1.287733726,1.341930583,1.345555608,1.349069212,1.474830888,1.483705427,1.495592169,1.57236092,1.510855642,1.573744836,1.594573224,1.600916702,1.616885555,1.627537787,1.623983106,1.620994255,1.615677635,1.60488106,1.589410787,1.569317063,1.564736084,1.571445484,1.567643195,1.567954671,1.588372822,1.589595936,1.594226295,1.620229492,1.146225013,1.655100897,1.104631309,1.106529288,1.104015954,1.10634063,1.653952487,1.109960591,1.688822626,1.705967744,1.729010363,1.743141055,1.746315306,1.737410379,1.723211088,1.723531963,1.741412722,1.735912508,1.717422724,1.704102686,1.690015352,1.67677255,1.674382033,1.671219157,1.658399253,1.638552142,1.621021085,1.611001693,1.595142997,1.586179827,1.582723201,1.572097558,1.57016286,1.564691768,1.577129291,1.588087935,1.592610671,1.59978222,1.595511451,1.591492648,1.598099489,1.599169397,1.600056977,1.600639413,1.591061127,1.590691167,1.592320719,1.594016112,1.59170103,1.591281199,1.595373439,1.621013247,1.674942944,1.607294367,1.532252103,1.517900701,1.681399111,1.639681025,1.540699239,1.383348052,1.47173132,1.546227308,1.477012488,1.472712597,1.410928889,1.356340788,1.289725401,1.390116962,1.372023487,1.262853616,1.2651007,1.309411709,1.254327272,1.13703876,0.961975215,0.797200513,0.749345868,0.570956112,0.550939335,0.568982163,0.536802621,0.52932410,0.650041942,0.652193153,0.644769637,0.670105510,0.756162892,0.778767707,0.692291281,0.652580599,0.703029612,0.612369783,0.56195369,0.499333048,0.457497745,0.416567748,0.369610813,0.348584904,0.417832645,0.442786192,0.428921704,0.43075131,0.415895415,0.347100605,0.302467436,0.320298815,0.343321463,0.363428137,0.365060222,0.378511942,0.310575819,0.31558109,0.261336119,0.261700774,0.244408781,0.219215928,0.188321007,0.155888768,0.191588244,0.231539496,0.260977795,0.238414644,0.194382106,0.165014007,0.17381131,0.200557745,0.172295712,0.173411202,0.181128468,0.165655952
0.904501527,0.786768593,0.743898834,0.773891464,0.798462878,0.795345583,0.791991517,0.80942532,0.842030293,0.874131333,0.936717788,0.961029391,0.971492965,0.96708545,0.934433629,0.862453508,0.869388285,0.854055046,0.774414637,0.75611069,0.749133153,0.748716585,0.710550496,0.82342149,0.880549515,0.886321954,0.961033189,0.965057056,1.008257284,0.981389298,0.94296124,0.837146771,0.762125255,0.739987655,0.721629552,0.708878021,0.707556146,0.711016571,0.735154709,0.755612111,0.783800706,0.80639919,0.846893626,0.886377105,0.931098796,0.951222956,1.004135923,0.977402149,0.91222639,0.957016919,0.870545558,0.861387399,0.933039583,0.963086906,0.974892614,0.999481506,1.003255939,1.014310811,1.014381717,1.019980691,0.999949987,0.778518272,0.729503822,0.743556969,0.750463891,0.743229033,0.74678442,0.757778516,0.763185034,0.763115395,0.793680579,0.822706108,0.840493171,0.856430369,0.849775414,0.884085909,0.933611889,0.959981008,0.977241461,1.002954592,1.018341009,1.027646044,1.049649431,1.036773816,1.053646709,1.061194309,1.067520061,1.064036845,1.054354494,1.082946995,1.176721587,1.223105859,1.200097495,1.274451672,1.321336435,1.292751531,1.342927053,1.428519697,1.431329313,1.459186173,1.537547758,1.517546175,1.539505247,1.548812814,1.560370353,1.574900844,1.584233734,1.58070367,1.576265768,1.569229698,1.557988699,1.546255164,1.525950968,1.522174003,1.507591064,1.498570185,1.507620721,1.529129038,1.546403305,1.547842932,1.567127867,1.589364228,1.600928098,1.620686577,1.618560689,1.61246158,1.611376478,1.627259231,1.652985138,1.671515439,1.682434832,1.712206131,1.720162702,1.713621702,1.697808588,1.690568106,1.689916591,1.710324613,1.714221863,1.696529763,1.677261289,1.67217511,1.653818274,1.651734169,1.646065556,1.642559549,1.623654464,1.610454711,1.597955146,1.583983033,1.573813209,1.571326464,1.564358767,1.562992577,1.559163699,1.572620483,1.589340171,1.595879904,1.598484402,1.599991137,1.589498441,1.590692433,1.593774275,1.599417565,1.599407436,1.600003798,1.594236146,1.589004637,1.590453128,1.589788392,1.597375243,1.614645712,1.646960733,1.69999272,1.644809522,1.610083725,1.579852809,1.597650001,1.447534938,1.397307504,1.417333143,1.365241916,1.417843407,1.425311239,1.312775905,1.257616764,1.226951553,1.143448079,1.285921846,1.394049105,1.422463637,1.449358213,1.308765910,1.172624282,1.007786272,0.860982226,0.729531678,0.653268126,0.584188785,0.521577006,0.532440688,0.539014608,0.498330247,0.602782394,0.643741513,0.603312916,0.648108154,0.680784388,0.748510201,0.731863951,0.622632037,0.670712059,0.687084817,0.615939098,0.529674121,0.488078122,0.43802162,0.395497523,0.339743285,0.327651425,0.353495086,0.408465568,0.394504851,0.421043635,0.401989143,0.310620135,0.301968567,0.282748208,0.309932735,0.310711426,0.348501337,0.326880332,0.304738933,0.253164301,0.216427837,0.209114477,0.19595904,0.195815963,0.110772708,0.152164981,0.220463099,0.198567336,0.197027681,0.163375592,0.127184844,0.135425035,0.155283541,0.146462181,0.129337322,0.144186886,0.140176946
0.914390263,0.786522957,0.752516341,0.806245984,0.831532532,0.838329297,0.882210721,0.925750281,0.996059067,0.948075273,1.060765079,1.121462419,1.228462086,1.145723375,1.094399443,0.944923793,0.913384929,0.811719608,0.777186268,0.773107956,0.769409493,0.774461485,0.780993622,0.792404286,0.832126363,0.858068784,0.958710757,0.990243578,0.949014767,0.913898992,0.905857588,0.847772344,0.772353323,0.747973347,0.724056787,0.717724704,0.716833325,0.727891996,0.745506861,0.762714021,0.799570771,0.853267493,0.931089932,0.894733077,0.911535065,0.964898786,0.997556938,0.967790703,0.93983255,0.910160011,0.861412722,0.912060523,0.951017837,1.001101839,1.046443505,1.030455101,1.03556463,1.044136556,1.041056221,1.06182739,1.054719149,0.872020638,0.788599465,0.762772265,0.738163113,0.751647753,0.761974582,0.76751278,0.772709115,0.774277891,0.774068974,0.771607553,0.774314106,0.777652217,0.783034677,0.798485109,0.846870836,0.91107822,0.939861672,0.963711125,0.910102552,0.972938923,0.98503205,0.994052198,1.011526518,1.021562129,1.03205989,1.030817783,1.038223573,1.071740183,1.104780716,1.135216751,1.194739091,1.254042385,1.270596205,1.251550575,1.296377823,1.370910241,1.391819952,1.395853948,1.476280645,1.473819224,1.49493503,1.502310143,1.518783217,1.535516832,1.540067423,1.53692354,1.531075131,1.523375592,1.511780067,1.503503157,1.487270943,1.477862083,1.457823782,1.445568586,1.463581027,1.488577624,1.50677619,1.505268189,1.518622414,1.539021572,1.558377412,1.582007819,1.584381875,1.579575519,1.589103398,1.609060105,1.628969818,1.644610734,1.659389393,1.690940918,1.697564218,1.687293101,1.108072741,1.655777029,1.655890983,1.675901429,1.68286786,1.679889844,1.655536458,1.649983065,1.63317348,1.628582372,1.625077632,1.618063087,1.610440783,1.594081952,1.586041815,1.573779023,1.560326037,1.556932719,1.556181884,1.551024801,1.559594195,1.571753161,1.587810356,1.59826409,1.596052103,1.594276942,1.587577671,1.582108756,1.58933384,1.596818131,1.594783407,1.597044775,1.597874112,1.585656901,1.587467515,1.597405631,1.628031055,1.672639792,1.72727854,1.78716047,1.758088093,1.718214077,1.591322982,1.441640948,1.29260339,1.270177105,1.344231201,1.202579175,1.223598753,1.274226295,1.134806514,1.084056154,1.09848282,1.075957773,1.190131523,1.272019372,1.479340962,1.482002437,1.270839308,1.14755678,1.033357707,0.92636437,0.781562129,0.100809395,0.61477676,0.56249814,0.501634933,0.481456088,0.481589035,0.506528655,0.561958755,0.565611636,0.61102156,0.604114398,0.637962743,0.649862146,0.64526724,0.602044221,0.713283003,0.678412864,0.601410283,0.542687748,0.49230964,0.141093984,0.392960132,0.355191745,0.305612586,0.311111533,0.322427235,0.361446592,0.388909675,0.393243752,0.372823069,0.313071019,0.270194198,0.260873969,0.278787649,0.302972635,0.290927623,0.233174113,0.218974091,0.199956317,0.177678173,0.183675989,0.183716506,0.136223984,0.110914518,0.110909453,0.2051995,0.173109855,0.154483326,0.109710523,0.112211196,0.112758179,0.121093573,0.095163572,0.088650428
0.880496336,0.779362803,0.777358467,0.842853299,0.880036719,0.88109903,1.026886346,1.04383141,1.149073643,1.049721067,1.13624361,1.313900258,1.469819413,1.244021968,1.052937657,1.107376351,0.981046167,0.827875853,0.793036101,0.802305683,0.79994049,0.818070684,0.820567558,0.829723185,0.839979108,0.893777124,0.942597851,0.952601807,0.899888894,0.856398715,0.832587247,0.815439596,0.784852888,0.747533989,0.729345552,0.724282165,0.728018613,0.744391371,0.752093443,0.769141087,0.815783993,0.899720494,0.981921086,0.910929712,0.926198503,0.984114081,0.984514189,0.960479876,0.925773072,0.911033905,0.919649906,0.980624535,1.024219806,1.097454695,1.113678046,1.069120491,1.071422376,1.079486571,1.010177928,1.010393175,1.063903898,1.02953516,0.982688381,0.968008483,0.760538753,0.828676068,0.854124685,0.790222686,0.788177833,0.781501468,0.773373851,0.781909058,0.791830714,0.814514031,0.870011237,0.83092604,0.784647769,0.816018233,0.888797303,0.90891284,0.91734169,0.895433265,0.887151291,0.919115585,0.968609911,0.981428549,0.9916984,1.001555482,1.02728772,1.048909992,1.075257585,1.119484672,1.110970862,1.215335771,1.212793315,1.227818875,1.262927053,1.302509852,1.334177864,1.365243183,1.41479322,1.434769479,1.451701882,1.456311983,1.4747182,1.485676843,1.489029644,1.491486001,1.485611003,1.47620974,1.410427362,1.458207429,1.448425051,1.434495988,1.417152082,1.417745913,1.4394125,1.455186363,1.46909137,1.410075368,1.476383204,1.499765443,1.520503933,1.54295934,1.5506918,1.556162892,1.575599710,1.592557492,1.603671874,1.624135606,1.643802922,1.107054746,1.107880284,1.102935916,1.650203377,1.621013488,1.623472136,1.639004163,1.655026194,1.1012152,1.634786572,1.62197933,1.611057405,1.606172546,1.60559391,1.594731494,1.590579745,1.578971559,1.510013643,1.556109713,1.550008072,1.547954355,1.5475897,1.544688919,1.559865154,1.577910225,1.587899277,1.595013849,1.590049222,1.584379343,1.584118513,1.583022015,1.589536426,1.59059114,1.588489309,1.587933463,1.585275786,1.585696152,1.595707706,1.613673298,1.670877293,1.730411028,1.791019977,1.859157052,1.85813779,1.607507083,1.468203789,1.340717598,1.243934603,1.18863745,1.222067961,1.125977557,1.091888146,1.132588196,1.032151053,0.990845006,0.987174398,0.996228732,1.050120444,1.175419971,1.250760489,1.297532564,1.121841002,1.20364655,1.102159758,0.831052657,0.709904879,0.630908947,0.558190653,0.508440562,0.482075242,0.505630945,0.498093475,0.481727047,0.467486507,0.470963392,0.478674327,0.494987576,0.558697118,0.576229682,0.580326987,0.554157922,0.635944479,0.703384138,0.685573018,0.609241093,0.555995125,0.480467214,0.460932846,0.386335565,0.346204517,0.302629505,0.278497697,0.275604514,0.291862052,0.336832376,0.360417201,0.358383742,0.339460931,0.276003355,0.235064495,0.243100478,0.281214884,0.255318044,0.196512353,0.190624693,0.171847491,0.167540003,0.179802795,0.15542915,0.118574933,0.16198028,0.203726952,0.188467151,0.154975864,0.112040264,0.087837551,0.079869585,0.094525426,0.110869063,0.093865755
0.8581131,0.796101483,0.82603865,0.915493091,0.960833135,1.003544624,0.976784262,1.125685074,1.282381653,1.144975072,1.330692117,1.508951458,1.459110204,1.194332653,1.254519728,1.236956776,0.950589874,0.82378108,0.85109349,0.849444946,0.845395755,0.87623443,0.876383837,0.884605036,0.933253565,1.046482756,1.144810471,1.177417976,1.094348796,0.910599243,0.880876185,0.844843708,0.798806008,0.750405647,0.730101096,0.734988842,0.714698457,0.753917984,0.761165503,0.782240793,0.857894054,0.903507589,0.970895336,0.992725258,0.993741988,1.000432395,0.975525695,0.965525537,0.9378624,0.970833294,0.980876502,0.9735011,1.065100067,1.152082047,1.146962949,1.086982258,1.05951411,1.076221135,1.081617524,1.059444471,1.054002501,1.055044553,0.992670813,0.889391134,0.770041309,0.837622778,0.999887945,0.884901318,0.830576579,0.862152161,0.835314618,0.816468987,0.856011269,0.976772810,1.150917177,1.128806110,0.968547869,0.821994524,0.81816438,0.860285836,0.854409572,0.829033126,0.811135907,0.820917019,0.900952471,0.954325056,0.961101027,0.985857588,1.003290126,1.026986373,1.064628144,1.092011459,1.129018882,1.16169476,1.165115933,1.196783945,1.246464397,1.283502208,1.320785654,1.359870851,1.385587895,1.401021161,1.407996455,1.418587911,1.431173575,1.437701913,1.414610775,1.447688144,1.444069449,1.434117405,1.146307171,1.418209328,1.411808873,1.397211275,1.384347055,1.398155833,1.417477486,1.426311508,1.433483057,1.44051153,1.449165757,1.469134419,1.490067898,1.510226485,1.519008594,1.534192425,1.546146343,1.55958913,1.580009813,1.609203742,1.627088299,1.146875821,1.6451995,1.643983983,1.632677144,1.614319042,1.596387636,1.618006109,1.629743444,1.631626229,1.598098223,1.577937103,1.595060697,1.581074656,1.585169428,1.571084627,1.57181647,1.564214425,1.542051501,1.53479132,1.539899023,1.539928145,1.537329978,1.551004542,1.555423453,1.568534574,1.576027729,1.581874871,1.57656205,1.578789231,1.592148521,1.595051834,1.593898359,1.590329044,1.585385942,1.58165076,1.579943972,1.580978428,1.585422101,1.60319453,1.690245794,1.813784087,1.910009971,1.980726461,1.834765681,1.550747511,1.460026906,1.420998686,1.323158445,1.198042511,1.087720431,1.129769717,0.996379406,0.989133153,0.946083598,0.902165456,0.911878195,0.921965719,1.019688207,1.044822816,1.099907254,1.011153,0.951064926,1.084342307,0.990314483,0.839348559,0.778833547,0.633533704,0.549814982,0.592327683,0.678550876,0.75803808,0.672288432,0.782738395,0.563565516,0.432825285,0.426327335,0.425268822,0.146592691,0.467854961,0.523198962,0.516833959,0.552933542,0.595129703,0.102518715,0.691820268,0.633656522,0.57223367,0.512273238,0.4388269,0.407100288,0.375418704,0.330780115,0.277791178,0.254425399,0.246780305,0.270988082,0.308241141,0.323440110,0.319006062,0.284918412,0.226016492,0.224645237,0.252013358,0.222196477,0.168769447,0.157294209,0.143991897,0.138718326,0.13797129,0.117454379,0.135927702,0.208421886,0.252165298,0.186732507,0.151550892,0.099326718,0.070611399,0.057103968,0.062153427,0.087992023
0.933719513,0.825327010,0.99569821,1.131671494,1.1474213,1.146127281,1.083953595,1.110073153,1.227701122,1.274463068,1.5333327,1.710361205,1.517127075,1.319195353,1.18891462,1.045772439,0.892776855,0.860973363,0.984517987,0.916018549,0.905884178,0.96035959,0.983613947,0.958338794,1.040757110,1.138380894,1.312122565,1.217227419,1.123217321,0.998539481,0.992761977,0.933191523,0.863858949,0.771385974,0.734530491,0.742779545,0.750534796,0.760757799,0.769358847,0.8176098,0.890483833,0.973411202,0.969163224,0.992317554,1.04764003,1.035716569,0.991107102,0.975258535,0.960931896,0.965121631,1.022808034,1.011972208,1.077636706,1.150739914,1.151847807,1.105061805,1.061313328,1.053526423,1.055309181,1.052733805,1.041960021,1.013063146,0.867744805,0.777488882,0.785485969,0.883704794,1.003688967,0.90210559,0.879670798,1.004278999,1.035513983,1.062217369,1.092607822,1.069599101,1.143762088,1.189817514,1.086363104,1.039659402,0.875378504,0.817427473,0.816199294,0.803595904,0.821947676,0.835422186,0.832383394,0.902994793,0.947834702,0.959918910,0.975154709,1.013146497,1.037690518,1.062343985,1.092498932,1.119729041,1.157924125,1.201508001,1.238089993,1.268184163,1.298836712,1.331160597,1.352732222,1.365530602,1.368394103,1.379560958,1.390146084,1.398281183,1.401490907,1.408995458,1.404652517,1.399101657,1.389428169,1.381790672,1.384776285,1.370738332,1.355968536,1.379858506,1.39261257,1.391046510,1.408810598,1.419548929,1.425544213,1.444816485,1.469933368,1.485448934,1.502670022,1.518027317,1.52134973,1.535519364,1.559253597,1.589625057,1.607552104,1.622433883,1.625572702,1.620543501,1.610211072,1.61226026,1.576101110,1.568507985,1.594887232,1.601656142,1.560308311,1.558680025,1.569457607,1.562060681,1.564210626,1.553930646,1.55299875,1.551108012,1.52587753,1.514125002,1.525438172,1.527105709,1.536458858,1.549567447,1.551214725,1.55401168,1.559585331,1.567155722,1.573458684,1.587621987,1.593510913,1.60472912,1.601325673,1.593457734,1.588921071,1.582025545,1.577544593,1.580165551,1.58459459,1.610677556,1.741977431,1.78326955,1.870463891,1.852623649,1.806368169,1.653877784,1.480337433,1.393540108,1.370723138,1.161818844,1.071323616,1.020592248,0.990618363,0.899610338,0.892894608,0.838082396,0.835336087,0.879759429,0.937864932,0.938737319,0.986033585,0.900311793,0.824217907,0.901129734,0.953498251,0.820577687,0.758089993,0.583210041,0.688918222,0.782201542,0.897376826,0.924681639,0.785678426,0.926388427,0.728874539,0.535176867,0.451501195,0.425327010,0.408314895,0.387963851,0.405761043,0.471577481,0.513679946,0.52707722,0.575887818,0.582913758,0.580534637,0.6531095,0.578605005,0.537739582,0.501498188,0.459721128,0.388761534,0.332512226,0.306740737,0.259116535,0.231626862,0.225098523,0.237729769,0.257152715,0.275319627,0.273468496,0.220084516,0.201516231,0.234878369,0.218846209,0.195941313,0.172165298,0.145473308,0.126225092,0.104781464,0.108192394,0.153622335,0.21253565,0.1821376,0.135105606,0.108943228,0.070910213,0.054333602,0.043576278,0.038712945
0.861279775,0.942894133,1.171345457,1.43782853,1.467118687,1.335559249,1.224861118,1.410226168,1.323735815,1.472516341,1.576288559,1.70512448,1.519047845,1.413382714,1.131885476,0.923011034,0.910094171,0.937749711,1.025497365,0.985111818,0.990928573,1.051195416,1.175745375,1.08005761,1.207101555,1.210611468,1.269180634,1.307854328,1.162531694,1.086864505,1.199492268,1.148218983,0.956569963,0.777500277,0.737564218,0.746034851,0.75896871,0.768601681,0.783962775,0.860575788,0.94925787,1.010351519,1.062755488,1.044280898,1.089163857,1.092340101,1.009512052,0.981309529,0.950892487,0.977213491,1.036504123,1.106587531,1.108161373,1.144263489,1.152611304,1.129646899,1.071783233,1.059969929,1.052932593,1.064628144,1.054146913,0.934933764,0.818629062,0.779681876,0.906212114,1.001641045,1.000438726,0.944932656,0.873647658,0.953281737,1.072046595,1.152294763,1.168744757,1.153987623,1.188627321,1.163264802,1.153427979,1.08751278,1.042501939,0.883699729,0.850925091,0.855380719,0.850303404,0.860531472,0.844479053,0.836941047,0.871190035,0.890968773,0.972593261,1.011455613,1.038832597,1.056745011,1.076932719,1.109975785,1.151378061,1.185358087,1.21801244,1.252992735,1.284383458,1.304090024,1.315565263,1.326379564,1.335728914,1.34234715,1.35074308,1.359074435,1.359541649,1.363002073,1.362751373,1.369388601,1.357439818,1.348414101,1.348531092,1.346407736,1.332919298,1.362876723,1.365744583,1.369282244,1.385406834,1.389347135,1.403154646,1.43542915,1.454231676,1.471903518,1.483983983,1.494300682,1.495157875,1.517097954,1.5516984,1.575977082,1.585929127,1.600434294,1.604108344,1.595187313,1.585843027,1.602981815,1.553441907,1.537146454,1.545127012,1.554419385,1.539674913,1.508100241,1.543987465,1.554927116,1.536196762,1.540620737,1.534843233,1.535935932,1.526085181,1.515432949,1.5453258,1.53824108,1.538530301,1.541627336,1.545019388,1.548554516,1.548573509,1.551426175,1.568599149,1.580853078,1.587681497,1.592885428,1.597967808,1.590463258,1.586758464,1.57816248,1.574190526,1.578765174,1.583926056,1.59967333,1.680148141,1.688159157,1.733354858,1.767474162,1.838151401,1.719106722,1.435820395,1.251596157,1.170484410,1.077532881,1.014698257,0.960051913,0.915784309,0.894126585,0.829891585,0.793396958,0.772840796,0.803903582,0.831041261,0.846453002,0.917640505,0.837686086,0.764980454,0.738169444,0.743382239,0.100568824,0.588659608,0.676836491,0.805195068,0.990358799,1.02982891,0.991642689,0.910161278,1.054853362,0.871474922,0.638322334,0.531130209,0.472882896,0.441631451,0.415775129,0.310861972,0.400349461,0.469219885,0.481480145,0.495435798,0.491065002,0.501132267,0.603525632,0.679457449,0.649760853,0.60258234,0.524929807,0.439710682,0.392116867,0.324392321,0.279506829,0.259940807,0.239387177,0.223158761,0.204858902,0.203277464,0.243592105,0.252908536,0.197997563,0.19462577,0.226963582,0.228090467,0.220960701,0.202787459,0.15846541,0.111486951,0.091042211,0.106323536,0.188375987,0.151793995,0.092224807,0.072200434,0.055979615,0.045365367,0.038704082,0.032325151
0.935281959,1.126258646,1.378278334,1.704928224,1.577347071,1.49023883,1.393631831,1.541604546,1.531354953,1.590940601,1.776081541,1.544383774,1.271290062,1.155163889,1.023771049,0.920472912,1.056765269,1.069582146,1.11012210,1.072798696,1.18259152,1.183254989,1.337093839,1.158444518,1.377101465,1.361044585,1.393769843,1.503767786,1.236850419,1.296457591,1.300790402,1.189476916,0.960362123,0.756288242,0.742835256,0.751141288,0.764880427,0.776879857,0.809570929,0.886261178,0.968831489,1.079520757,1.170603485,1.119786018,1.123507273,1.109418673,1.013923365,0.970278714,0.973244069,1.010024848,1.085861703,1.115629204,1.138417612,1.151021002,1.149604110,1.119532786,1.092419163,1.07452321,1.059146212,1.072698109,1.056016967,0.933358657,0.797837393,0.828840109,0.987171810,1.032257411,1.020197205,1.00247345,0.941053372,0.951309055,1.027239606,1.100680879,1.170469272,1.199582110,1.206308026,1.223817799,1.219097542,1.127055062,1.086388427,0.971746198,0.950368295,0.946510295,0.941164554,0.911037463,0.831999747,0.833749585,0.841088508,0.848691578,0.935527594,1.016939367,1.029216087,1.042291756,1.06836839,1.101803910,1.13776174,1.170537645,1.202827343,1.23335834,1.249964073,1.275015115,1.286043398,1.288612443,1.297155247,1.306588165,1.317553139,1.322187297,1.323425605,1.322370891,1.325604672,1.329934951,1.323887755,1.325771806,1.317840558,1.317670892,1.317329028,1.340363072,1.332233037,1.350832977,1.359794882,1.37405568,1.40743048,1.146283114,1.43422123,1.445491465,1.461621006,1.467333935,1.482164506,1.508593134,1.542503522,1.564438536,1.567325388,1.577787696,1.582701676,1.565147587,1.560909738,1.582274979,1.535273729,1.512967729,1.534595065,1.525074783,1.512691705,1.438186854,1.505926594,1.526544798,1.505851891,1.517223304,1.518737635,1.518324810,1.502150895,1.520553313,1.538627795,1.560640046,1.538964595,1.549264834,1.549908045,1.545340994,1.557868414,1.551897188,1.549852334,1.567486191,1.585406201,1.587109191,1.587649843,1.588922337,1.582295238,1.578332146,1.574274093,1.57479322,1.578153617,1.583886805,1.60129022,1.624347055,1.105454315,1.739161483,1.8011731,1.614031087,1.37980786,1.257107411,1.161195891,1.103010331,1.029430068,0.962571578,0.914074989,0.933362455,0.93087571,0.872228289,0.796457275,0.747314942,0.749077442,0.768139531,0.841032797,0.854960353,0.767215232,0.10453698,0.602484846,0.631835779,0.687452004,0.803885855,1.004403083,1.099521074,1.162890018,0.985107104,1.021771046,1.138482187,0.91951316,0.690808604,0.590945033,0.540521343,0.465477106,0.146809205,0.373418110,0.349243309,0.389868161,0.427612491,0.43537154,0.444211892,0.410005096,0.518772455,0.640597629,0.109889052,0.101798269,0.586500799,0.499645791,0.397455012,0.323156545,0.330533213,0.300141028,0.277858285,0.235050567,0.221949575,0.201579539,0.181742557,0.214555181,0.211207445,0.183854518,0.197573398,0.21367773,0.213223177,0.208934682,0.200479243,0.170991029,0.108001203,0.079076967,0.087322223,0.0773993,0.063358815,0.055623823,0.048690312,0.046864505,0.050452812,0.043335707
1.061619739,1.187485241,1.432199167,1.726513777,1.683747844,1.586381147,1.550336008,1.610796575,1.769296171,1.70757957,1.696732349,1.520710029,1.338561322,1.202452558,1.099474226,0.945816438,1.139235554,1.31135527,1.247444408,1.231096972,1.386231106,1.341757118,1.420854344,1.315361411,1.444098571,1.491711378,1.578309355,1.547309878,1.370291376,1.406256746,1.285857272,1.135038222,0.855174335,0.759675229,0.750018201,0.754402925,0.774100273,0.791126727,0.859280503,0.982097083,1.012958549,1.052516025,1.170810847,1.190746878,1.164025710,1.076462973,1.007094946,0.998164696,1.052280518,1.043931437,1.123725053,1.139498916,1.140111739,1.141809104,1.144016587,1.119258028,1.081647912,1.072169413,1.055891081,1.006931611,0.948700758,0.855877056,0.802752639,0.900796733,1.021497555,1.047588117,1.034341516,1.050090056,1.013373851,0.956178719,1.069849801,1.090432553,1.144848456,1.197107727,1.206010189,1.202998275,1.226578035,1.218014972,1.187444724,1.079076334,1.037724704,1.029104308,1.038745232,0.991053923,0.810386211,0.877690518,0.904216146,0.847282339,0.874312394,0.981550101,1.013600494,1.028018296,1.061204438,1.089767817,1.120197521,1.149671272,1.171993732,1.20280835,1.227389646,1.25412975,1.256960891,1.255890983,1.263675356,1.275197442,1.281685263,1.286494152,1.289551936,1.288203472,1.289594986,1.292190621,1.294533023,1.309443363,1.299248216,1.298839245,1.295311410,1.300543501,1.318265989,1.323782103,1.352104205,1.378417612,1.393234256,1.409626007,1.417285029,1.432451134,1.43558109,1.447932513,1.470268901,1.495949227,1.522539924,1.544856053,1.541981862,1.548687463,1.553481158,1.527978095,1.545465078,1.561073073,1.515884969,1.506457117,1.515822927,1.479939857,1.454473513,1.395912192,1.425304908,1.467211117,1.46971812,1.483304053,1.488036972,1.501359543,1.512824652,1.521087875,1.538972192,1.554329487,1.602513334,1.602298087,1.56895494,1.559356156,1.514628326,1.573446022,1.570969406,1.553479892,1.510330184,1.571140338,1.579274172,1.583518351,1.576054318,1.571464476,1.571461172,1.57251919,1.573995537,1.579402054,1.586481174,1.593988256,1.620449805,1.691285314,1.780490322,1.647102188,1.406515044,1.339503347,1.219498916,1.110678505,1.049929253,0.971178956,1.01847269,1.198384376,1.173510596,0.983522783,0.874948008,0.806334615,0.760222212,0.697442033,0.755523479,0.728310808,0.102655461,0.615645348,0.625001029,0.721432031,0.805139357,0.92250637,1.158322967,1.283882057,1.186201410,1.09984901,1.141507051,1.257330611,1.107354826,0.844814586,0.682403811,0.629278129,0.551972524,0.497551021,0.422216102,0.354421917,0.338512575,0.343777282,0.344690186,0.360867955,0.396553503,0.448182581,0.515294304,0.535716253,0.545815172,0.589791558,0.523493978,0.416877958,0.399365652,0.38904009,0.345639808,0.317908298,0.21095282,0.265138407,0.224214622,0.193778706,0.173214947,0.191809822,0.190471488,0.169374674,0.19184021,0.195503221,0.191390722,0.184119146,0.169327826,0.13537059,0.085011475,0.068743808,0.061516547,0.056798822,0.060447905,0.06502382,0.084754443,0.071461489,0.056487346
1.329894434,1.303891237,1.601842268,1.71768482,1.924911448,1.853155437,1.711243847,1.686510612,1.814580504,1.534270927,1.439204849,1.308644414,1.213851827,1.05401263,0.996109713,0.988325341,1.140654923,1.421365874,1.461160122,1.45610813,1.63574759,1.511345773,1.483875093,1.382361464,1.264265388,1.296869095,1.428633651,1.428437396,1.311493281,1.176743111,1.045473624,0.956214172,0.787381416,0.75821281,0.77857525,0.760841310,0.784592058,0.811010268,0.901291803,1.002339237,1.144480003,1.139393824,1.20562683,1.110108605,1.165826251,1.121159806,1.017654749,1.039813874,1.101412722,1.109473118,1.1267094,1.137252742,1.139039299,1.130723138,1.13931279,1.131822167,1.109732681,1.080343763,1.072960765,0.99436494,0.860775842,0.811741133,0.813635313,0.891017128,0.9927873,1.046015542,1.058881028,1.081877087,1.099821154,1.058187171,1.044154282,1.140772676,1.153405188,1.204905117,1.190724087,1.195619075,1.234551010,1.261635567,1.250535112,1.21477486,1.142013516,1.130623111,1.075675419,1.04458731,0.999375148,1.093218112,0.941193676,0.859124765,0.864394537,0.935749173,0.997610117,1.020609974,1.050592723,1.072344143,1.097569916,1.12217147,1.16599465,1.208883402,1.209169555,1.224881376,1.229521865,1.228887517,1.235710583,1.250693383,1.249485463,1.254484276,1.25521232,1.261372205,1.255421237,1.264470506,1.27880854,1.283324945,1.279650539,1.277908298,1.214695749,1.292000696,1.304567368,1.333432094,1.356497792,1.367678015,1.381556431,1.388841935,1.399138376,1.410321131,1.404652517,1.434342782,1.458445468,1.474846082,1.501467167,1.510085941,1.509832708,1.522638684,1.525450833,1.497645886,1.52686767,1.532927528,1.50989475,1.481551683,1.520164601,1.390994413,1.362552585,1.484141008,1.502882737,1.514680848,1.513212098,1.54317079,1.517168859,1.508060079,1.516773816,1.53043192,1.539469794,1.551195733,1.621162655,1.617322381,1.575635218,1.568271212,1.568814396,1.580870804,1.577141953,1.572887644,1.56174414,1.510301062,1.564295459,1.565795863,1.565623105,1.568716902,1.569855183,1.570108415,1.570871912,1.578134625,1.586236804,1.609322761,1.629940965,1.726258012,1.839551778,1.647939477,1.429038824,1.292485637,1.197549974,1.137760474,1.05309846,1.010613488,1.115731763,1.371948784,1.436191381,1.091458145,0.923183768,0.896129655,0.836894734,0.739412817,0.678295111,0.645044395,0.631504044,0.672294763,0.759696754,0.760179162,0.810491303,1.056808319,1.354602346,1.440835108,1.246183309,1.287828688,1.351052264,1.46889005,1.39328237,1.24010157,1.022747258,0.7969802,0.621900195,0.461964769,0.392075083,0.368229429,0.388784325,0.369472801,0.342184448,0.340704303,0.329261985,0.310788535,0.394194146,0.410777583,0.422799804,0.438412864,0.446903756,0.45959831,0.444772803,0.475025244,0.398906035,0.331191618,0.329820363,0.311649653,0.275608312,0.238730038,0.173369419,0.164929174,0.182999858,0.168622573,0.171168827,0.188348132,0.167895795,0.165810135,0.131829131,0.102688381,0.081810325,0.070497444,0.085106081,0.104387573,0.10442809,0.104263489,0.09293006,0.068895747,0.072576484
1.450017885,1.536305652,1.723102378,1.927612174,5.007070256,5.134028457,1.943720305,1.844041593,1.100523875,1.459122865,1.280501401,1.194150325,1.125426776,1.128723810,1.109771932,1.142502255,1.125447035,1.382958074,1.659389393,1.560156371,1.530916861,1.401893547,1.231635092,1.213136445,1.082744409,1.115459538,1.157580995,1.229733314,1.290891537,1.09037431,0.90522324,0.816154978,0.773000332,0.828311413,0.806592913,0.765319785,0.787591599,0.838891474,0.978146723,1.05825681,1.205781302,1.220281405,1.265687289,1.198585696,1.148534258,1.101831822,1.030879825,1.083753541,1.129882405,1.123357865,1.114114873,1.114009781,1.117612016,1.109199626,1.102808034,1.107118054,1.106511562,1.104605986,1.031540763,0.915653894,0.854072773,0.840574205,0.812811041,0.891428391,1.015704857,1.063717772,1.076789643,1.107506710,1.125363468,1.121948625,1.025014957,1.139200101,1.16433471,1.175436431,1.190506307,1.193323521,1.210031812,1.235381109,1.260510925,1.205197601,1.135523163,1.119169397,1.182910304,1.157496162,1.065016856,1.120231708,0.960844531,0.880683728,0.8639843,0.897941535,0.940951838,0.970529415,1.023547473,1.049917858,1.07483342,1.098971559,1.126928446,1.167985059,1.190331577,1.207462767,1.206258646,1.206909453,1.213634047,1.217913679,1.22114113,1.224910498,1.23611069,1.245813589,1.236587057,1.241009765,1.25896776,1.270951997,1.246116202,1.274831521,1.279416299,1.292229872,1.306188057,1.327812861,1.339531203,1.341061995,1.352880363,1.364626561,1.379303927,1.381236092,1.392307146,1.423300571,1.43516199,1.452979441,1.464997863,1.475503221,1.47726572,1.490178054,1.498577782,1.471031372,1.502500356,1.503385404,1.489305108,1.457499644,1.525096308,1.385239701,1.357946283,1.488237026,1.543851986,1.567793869,1.574835003,1.510694839,1.529192346,1.52496336,1.520859725,1.527086716,1.541360176,1.547131463,1.555389210,1.583589257,1.585084596,1.576929237,1.577000142,1.589299653,1.586783787,1.585240334,1.589000839,1.592147255,1.591173575,1.574301948,1.562987512,1.563121726,1.567786272,1.568834655,1.57146321,1.584984569,1.629583907,1.691061444,1.705941155,1.732064638,1.710729658,1.562560815,1.378463194,1.300547299,1.252093759,1.151955431,1.155484228,1.158802843,1.226385578,1.222779545,1.201514331,1.050454711,0.976724752,0.854418435,0.835874207,0.712156118,0.648964437,0.701929316,0.705408733,0.791224222,0.809984964,0.843033094,0.933942358,1.14399253,1.47382049,1.47370147,1.442075242,1.491444218,1.600931896,1.400648909,1.263595587,1.080144976,0.87542915,0.726086447,0.587815077,0.457168542,0.512031401,0.512435307,0.477411962,0.406936043,0.379612237,0.314601736,0.330262254,0.32198028,0.341590618,0.344813003,0.344100154,0.345842394,0.351654084,0.360712217,0.375590903,0.419957267,0.443783929,0.394327588,0.387423199,0.359083931,0.299946505,0.246148489,0.223329693,0.162548787,0.167474162,0.161913173,0.155598816,0.164574648,0.145948119,0.126777139,0.104478736,0.088926452,0.076861181,0.101439944,0.118831964,0.125229888,0.120436193,0.109297754,0.087895795,0.086738521,0.095092107
1.511360967,1.64960195,1.795771647,1.921004068,5.092456515,5.015125588,1.967291202,1.715352547,1.512281468,1.363343937,1.406321321,1.384892772,1.246555561,1.259470427,1.290377475,1.294343099,1.252431825,1.447959103,1.57078328,1.430734216,1.302828926,1.174605828,1.073134229,1.071027333,0.984325531,0.978743016,0.978139056,1.017576247,1.025425193,0.952585347,0.817631325,0.778625896,0.828539322,0.946478146,0.814764731,0.774988209,0.804142887,0.874992324,0.997745596,1.113075353,1.25873352,1.285800294,1.295040755,1.188061346,1.127200671,1.076108447,1.063291075,1.10421854,1.125016539,1.114793536,1.105941788,1.095408575,1.099434975,1.09147967,1.092928161,1.076094519,1.053594796,1.016279695,0.930322397,0.874741088,0.94141652,0.879054176,0.818931675,0.873452109,0.998030483,1.07045756,1.097392653,1.119602425,1.138158049,1.141031214,1.087997721,1.048704873,1.098014339,1.172685058,1.195988794,1.195305010,1.201749838,1.217604735,1.253854993,1.283431303,1.272043429,1.265045344,1.248181315,1.151410981,1.121090167,1.145770223,1.050597787,0.945422101,0.880300081,0.891888008,0.932614153,0.967771711,1.019205799,1.035674786,1.065224507,1.086404887,1.11157115,1.143082158,1.16710381,1.186838232,1.19789437,1.187586534,1.207034804,1.193377910,1.192147255,1.200150673,1.223192314,1.222687115,1.228959689,1.225297944,1.254208252,1.236316098,1.250126142,1.273141193,1.271512907,1.300761281,1.312750582,1.319762594,1.320550148,1.320809711,1.330873178,1.339970562,1.35221816,1.310378931,1.389887786,1.406931611,1.426253264,1.437589225,1.433353908,1.440683728,1.450907997,1.41081734,1.472997484,1.449835557,1.481016096,1.474824557,1.417897852,1.471346406,1.432522039,1.360767295,1.348148711,1.457485716,1.505729073,1.538555624,1.658072583,1.580753051,1.534457053,1.536961524,1.536855167,1.534482377,1.534701423,1.543738031,1.556342687,1.580292167,1.605677477,1.582258519,1.581990092,1.590957061,1.593109183,1.594959404,1.594151591,1.593301996,1.595857113,1.584642705,1.576902648,1.563361031,1.567595081,1.568806799,1.577290094,1.601786557,1.685878797,1.786385578,1.810279347,1.799410601,1.644332178,1.472656886,1.40651631,1.367828688,1.275520314,1.214101562,1.325680642,1.285826884,1.293572005,1.14723644,1.015097099,0.931611351,0.853546049,0.816481649,0.718529984,0.692353323,0.737722489,0.842587405,0.756094519,0.826275422,0.911825016,0.969882405,1.069047054,1.244734818,1.572398905,1.594197173,1.637903867,1.633745786,1.408977731,1.138974724,0.97627653,0.910276498,0.745068768,0.602867227,0.506086764,0.585776554,0.761696026,0.657475587,0.558117215,0.478148869,0.419032968,0.390912746,0.362857098,0.308786857,0.308780526,0.288247155,0.275893199,0.284187835,0.317553772,0.312292864,0.318952883,0.32122438,0.33413798,0.367774876,0.414809047,0.356324961,0.317995103,0.294177864,0.239403637,0.187213649,0.150494912,0.146064606,0.140959435,0.148193027,0.134071507,0.114324423,0.090201478,0.094259532,0.126038910,0.133922099,0.122991311,0.112472026,0.111243847,0.107616289,0.109552253,0.11125271,0.119151037
1.67360081,1.7002928,1.794765048,1.957377143,1.978865201,1.773874618,1.697318583,1.706095627,1.51308928,1.484339775,1.55205799,1.459367235,1.338590444,1.388915373,1.50807654,1.458916481,1.247811595,1.286822088,1.313910387,1.302901097,1.378894956,1.256041657,1.052103256,0.920357691,0.887978095,0.86592153,0.836381938,0.834178814,0.818718959,0.796352183,0.785114983,0.826153871,0.909959958,0.869882089,0.788155042,0.794811263,0.838091259,0.931888146,0.982214836,1.111449599,1.212888277,1.281210452,1.307183261,1.110794810,1.122784293,1.092288749,1.102935916,1.100328886,1.122395581,1.101054638,1.093229508,1.078152035,1.07388633,1.072946837,1.07014104,1.059836981,1.042385452,0.963969422,0.876352183,0.965983888,1.016792492,0.949478182,0.825449884,0.883450295,1.009428486,1.082752006,1.116720637,1.133647975,1.141871706,1.15494231,1.157817767,1.114793536,1.099514623,1.115082221,1.149571245,1.142545305,1.170740231,1.201956222,1.237691151,1.271910482,1.294895146,1.286151022,1.265607521,1.231890857,1.198586962,1.162922938,1.089715905,1.013505532,0.936717788,0.882130953,0.943137236,0.981738759,1.009033443,1.041979013,1.057906082,1.087515313,1.123560451,1.139763544,1.145605622,1.156473102,1.167332985,1.18714591,1.186002564,1.170630075,1.162519032,1.186573604,1.203708593,1.201858728,1.206272573,1.228858395,1.228986278,1.2253258,1.255243974,1.250570565,1.270531095,1.294521092,1.302446544,1.301414621,1.297114611,1.313738189,1.321057879,1.32744694,1.339595777,1.361242106,1.3761841,1.393729326,1.408193976,1.411351788,1.408423152,1.418881101,1.438161531,1.448105978,1.431968726,1.450572464,1.455115458,1.445807891,1.403421806,1.438512258,1.328369973,1.343948847,1.343699413,1.387383315,1.464349588,1.524769637,1.108859029,1.582982764,1.546813542,1.554559929,1.543384771,1.543802605,1.539287467,1.542640267,1.554142095,1.592724625,1.60816802,1.588105306,1.583328427,1.608002152,1.607474162,1.593975595,1.593433677,1.589713689,1.58474653,1.583256256,1.572457148,1.567783739,1.571844325,1.570688318,1.57713942,1.618764541,1.713400123,1.845044395,1.915719102,1.845544529,1.670616463,1.572795214,1.484771537,1.407791336,1.349443996,1.372188089,1.448052799,1.375629521,1.22887992,1.163076144,0.961101206,0.886440973,0.82176155,0.816353710,0.721963819,0.77927164,0.848810598,0.937938369,0.86739101,0.824277416,0.98072203,1.08898153,1.310620895,1.45511110,1.716235063,1.574954022,1.523941031,1.637967175,1.494119621,1.273604609,1.041235775,0.841101839,0.679163699,0.532791415,0.603282529,0.760788187,0.86450216,0.800379849,0.610441416,0.50117405,0.480429229,0.439901872,0.395443078,0.383213206,0.338013706,0.322790624,0.28413339,0.284487916,0.301389931,0.298235918,0.295346533,0.28817625,0.285098207,0.29344349,0.307982843,0.337279331,0.332114651,0.270999478,0.234955605,0.210254024,0.193479892,0.159041514,0.12589589,0.129242359,0.120288052,0.101362708,0.110706994,0.157408164,0.171377744,0.137471155,0.132458414,0.120759065,0.121203488,0.137412912,0.140026273,0.13283953,0.126204834
1.414400709,1.506867354,1.10319548,1.789180001,1.64642388,1.612426127,1.489310732,1.645623105,1.506077268,1.420133897,1.490218571,1.344176756,1.434336451,1.322375956,1.301781808,1.203682003,1.120363389,1.094756501,1.092306475,1.016943165,1.042157542,0.986058908,0.884285963,0.849643733,0.838948451,0.823483532,0.812172895,0.807889464,0.83054999,0.849632338,0.920075337,0.867928398,0.803184401,0.802719719,0.814387414,0.816213222,0.906245034,1.042907111,1.090702246,1.154644762,1.158719276,1.267722014,1.26074672,1.145605622,1.116714306,1.104680689,1.127612174,1.120015194,1.109195828,1.093251033,1.080572939,1.065344792,1.045620499,1.062977067,1.047810962,1.033137395,1.021997689,0.9793723,0.88474558,1.000190558,1.026077268,0.952823386,0.836907396,0.895069876,1.03023788,1.0825165,1.113318456,1.131515756,1.148230378,1.160195622,1.167438077,1.150209392,1.162519032,1.099950303,1.162579808,1.197961477,1.167847047,1.17699761,1.219968102,1.255685865,1.267220613,1.253028188,1.261282307,1.271468024,1.268908409,1.185705016,1.137910858,1.110943133,1.00690249,0.877308137,0.905448618,1.019737588,1.040710029,1.056499375,1.064737034,1.087112673,1.114312394,1.114107276,1.125912983,1.154292769,1.165545162,1.175154076,1.167850846,1.145671462,1.146333106,1.159418198,1.17153918,1.178371397,1.202100565,1.212761101,1.208409857,1.235793172,1.242601333,1.262953643,1.276090088,1.281561179,1.281830872,1.278897172,1.286371334,1.298004843,1.309158476,1.312691072,1.335503537,1.336311464,1.357330928,1.375459855,1.38451039,1.385025719,1.387912571,1.401330105,1.414677999,1.418206796,1.390693010,1.426987639,1.444211259,1.433043698,1.343879208,1.355268347,1.417371128,1.374724214,1.37147144,1.367280439,1.400605859,1.462573161,1.545924695,1.644105535,1.597252425,1.609763386,1.554948146,1.554602979,1.546293148,1.544930757,1.552620167,1.574813478,1.619317854,1.603871928,1.599210891,1.640710951,1.642006236,1.603122359,1.594184512,1.589989712,1.585613852,1.580516278,1.57168099,1.568777678,1.573673931,1.577253375,1.579654021,1.620791109,1.742325626,1.863540509,1.957342956,1.924085909,1.737592707,1.626774291,1.545568903,1.440817942,1.454963519,1.512299194,1.415810926,1.330790877,1.152803761,1.056909612,0.938161214,0.888249054,0.868617191,0.783480367,0.771063102,0.957732301,0.978069417,1.069095168,1.029771932,0.924885491,1.019210575,1.201330738,1.501540604,1.717331025,1.586773657,1.383621008,1.284764573,1.453727743,1.511783810,1.256106231,0.97129671,0.770098286,0.586560309,0.563785828,0.742135068,0.919467578,1.096979884,0.950563284,0.687817926,0.628018296,0.561528259,0.475698843,0.438205213,0.426388111,0.389407277,0.310594812,0.3022218,0.262698511,0.282765934,0.274919519,0.277778516,0.278184955,0.210498267,0.244513872,0.263478467,0.210678062,0.280836301,0.291057012,0.298165013,0.285472991,0.25393106,0.180458108,0.148893215,0.117715208,0.107954355,0.129431018,0.171657510,0.157070098,0.138380261,0.153093079,0.150632923,0.141098713,0.137807955,0.140910055,0.142516816,0.139559059,0.13070098
1.31938781,1.468940696,1.526980359,1.544730703,1.508272795,1.473900258,1.382851469,1.431129259,1.460087682,1.309802953,1.477857019,1.213330168,1.23087106,1.184048874,1.11601105,1.08368137,0.956454743,0.905994334,0.888252853,0.810771125,0.856194863,0.849833658,0.841564345,0.836555403,0.835191745,0.869608597,0.877542377,0.898750613,0.987471947,0.907794818,0.833448238,0.801252236,0.797203045,0.818104514,0.832940506,0.862104957,1.037823465,1.151819952,1.198846525,1.232379596,1.248323125,1.283794692,1.206820822,1.139282402,1.125315354,1.136560151,1.128780843,1.104607252,1.090921292,1.076255322,1.010070304,1.040143076,1.027233275,1.04487093,1.036244559,1.015864394,0.987551467,0.909914376,0.923752275,1.012336863,1.03057468,0.929343653,0.844603137,0.899557159,0.910914518,1.059721761,1.095812481,1.119213713,1.143322729,1.110855642,1.1778624,1.110617603,1.191528101,1.142108123,1.191121102,1.211073865,1.200857193,1.237135305,1.204182138,1.270969723,1.265446718,1.244888024,1.245910795,1.263894402,1.313819224,1.284741782,1.230089106,1.142333856,1.017429372,0.959398572,0.886830951,0.973189624,1.052490702,1.0610487,1.05858348,1.060556162,1.075671085,1.088759951,1.111042135,1.144781464,1.150317016,1.158048209,1.137752877,1.149768767,1.169802004,1.177397718,1.180138961,1.173138344,1.174048716,1.186310242,1.207528607,1.223115078,1.214653192,1.257926974,1.257119162,1.256945697,1.26256493,1.271742083,1.277810515,1.290334425,1.289543073,1.309994144,1.321273127,1.321149043,1.341319026,1.359493535,1.364070715,1.35685485,1.370640837,1.387414969,1.37170568,1.367109507,1.403738347,1.427742272,1.43121156,1.358980738,1.31853315,1.146916196,1.48525901,1.435945745,1.414101003,1.457532564,1.398596458,1.436274947,1.524893721,1.610554738,1.108488043,1.657510406,1.595035373,1.599361854,1.551156482,1.547192124,1.549990346,1.554467499,1.575931501,1.146707421,1.645241283,1.677714575,1.707917636,1.627517528,1.594237691,1.588106927,1.587860026,1.580751784,1.570003324,1.570360382,1.574633683,1.577429372,1.581226596,1.609259453,1.693987307,1.763079309,1.836575028,1.958842094,1.847025941,1.675268347,1.575040122,1.509879556,1.540591615,1.560776791,1.476402197,1.349147714,1.192387826,1.098057389,1.023755124,0.97054081,0.897128658,0.799316272,0.785370748,0.984744631,1.161057879,1.238493899,1.217950398,1.100530206,1.102101159,1.234188943,1.467721381,1.708633018,1.491014988,1.258261241,1.132202016,1.245402086,1.130957378,1.056463922,0.871061127,0.689075226,0.548448792,0.109854810,0.860907523,1.124439169,1.149801687,0.941473498,0.9201105,0.823725369,0.623163826,0.504076096,0.458351139,0.428992609,0.413178228,0.391578747,0.373547315,0.30547584,0.265947486,0.256267107,0.234328854,0.232658785,0.232552427,0.211008898,0.225469509,0.243186933,0.242076508,0.244844341,0.273890129,0.268015131,0.250211608,0.223137236,0.212801545,0.164732919,0.142618109,0.189595303,0.169154361,0.144183087,0.159046579,0.170832028,0.17200956,0.15104316,0.148517164,0.141800168,0.139536268,0.131769622,0.119901872
1.238881345,1.363400915,1.379519174,1.361981546,1.463183451,1.349086938,1.318700283,1.293037684,1.34646598,1.198970609,1.382461738,1.152546729,1.075629837,1.036751025,0.971272652,0.916541475,0.880503933,0.882788092,0.906014593,0.910746245,0.889890002,0.884606302,0.917965909,0.954118671,0.937010272,0.98524983,0.998172293,0.979265942,0.864826298,0.816085339,0.810777583,0.81110172,0.832498615,0.874621338,0.94218888,0.889099916,1.036904231,1.163863698,1.240762863,1.273762879,1.30605511,1.267186427,1.11081006,1.124593146,1.109402213,1.108924869,1.091949417,1.063431084,1.059000047,1.051744931,1.039993109,1.03121156,1.019875599,1.031292595,1.021026542,1.005310922,0.969850751,0.898586012,0.97111185,1.041800484,1.040786287,0.900689109,0.861573525,0.930360382,1.034380767,1.020109484,1.0749689,1.110211291,1.141148727,1.172635677,1.187042084,1.183972904,1.206572654,1.178861403,1.19042274,1.220748619,1.225557508,1.258746182,1.261857145,1.255326274,1.243992846,1.244658848,1.260903724,1.257462292,1.289101182,1.328505452,1.274902426,1.102887802,1.033949005,0.933500467,0.893759397,0.987069307,1.044302423,1.046161151,1.069615561,1.140433344,1.1123701,1.101031607,1.091401168,1.100792302,1.119497333,1.11820458,1.122898248,1.136838707,1.135449725,1.148624155,1.16760521,1.187012962,1.177792761,1.188580473,1.194727696,1.209884937,1.227594764,1.235486761,1.239057341,1.249181584,1.257471155,1.263694348,1.268036022,1.268936265,1.272861371,1.29345172,1.298318852,1.311090146,1.332631879,1.345526487,1.340716332,1.328532042,1.353215897,1.340212399,1.352618268,1.394335818,1.385039647,1.368764383,1.327364639,1.320723612,1.394131910,1.451234108,1.519435291,1.526067455,1.5063305,1.44732982,1.416575978,1.393521675,1.463697514,1.557121378,1.679768292,1.729168922,1.675725432,1.619443205,1.56591235,1.555357612,1.553704003,1.555019546,1.564851305,1.627317475,1.693442856,1.734291819,1.673450137,1.611542345,1.589337638,1.587213016,1.585487235,1.580135163,1.571541464,1.573720779,1.578843676,1.578814555,1.584673092,1.604361933,1.642882421,1.692247598,1.791752845,1.884913347,1.863964674,1.761595310,1.650210686,1.602319611,1.612943988,1.588655176,1.572957283,1.438895906,1.417371128,1.2677562,1.169110679,1.040692591,0.944509757,0.8229758,0.89180824,1.175692196,1.403087539,1.468441828,1.504638906,1.288102179,1.241184496,1.291328364,1.463384771,1.611140971,1.503310701,1.309835874,1.172836997,0.976904547,0.839690423,0.782419322,0.650780115,0.555703908,0.653758131,0.809916591,1.034000918,1.311185604,1.131327097,1.15867496,1.16874729,0.884460694,0.637825997,0.540691009,0.486107972,0.44140101,0.421094522,0.419772407,0.402190463,0.382124306,0.360372885,0.326990488,0.291626545,0.262374373,0.253396008,0.214677882,0.209784277,0.21493503,0.199019356,0.199209281,0.206073153,0.240634348,0.228704557,0.216226517,0.208784008,0.199339696,0.178085878,0.186846462,0.159109531,0.178984854,0.194475096,0.187326338,0.164988684,0.151624329,0.143300571,0.138681607,0.130165393,0.125284333,0.103302471
1.224790213,1.19455803,1.245936407,1.262060997,1.461804599,1.273110805,1.215787791,1.195886235,1.158538214,1.081410283,1.180501084,1.03031385,0.956449678,0.92671763,0.908982479,0.896700695,0.921910007,1.048094582,1.120835108,1.01158856,1.041680199,1.043493345,1.091100732,1.064201447,1.040273491,1.086907554,1.176555719,1.01754206,0.838944653,0.818591077,0.822200908,0.869950461,0.923362297,0.986313407,1.059659719,0.929880506,0.998517956,1.110386022,1.11014659,1.257495212,1.346064606,1.262326892,1.133829036,1.094771695,1.098275169,1.073311492,1.058193501,1.033547631,1.017910225,1.006111137,0.997996296,1.002907744,0.989472485,1.011556906,0.998852223,0.993486223,0.932804077,0.945397338,1.004267604,1.049046737,1.036304069,0.927938211,0.863958976,0.899811658,1.027024358,1.077236598,1.093600494,1.104207144,1.128457971,1.167709036,1.190334109,1.195359511,1.218900021,1.218634126,1.205269772,1.241501037,1.249657101,1.273821123,1.291243531,1.298941804,1.278101105,1.251213776,1.26874634,1.271595208,1.280507732,1.31931184,1.275207572,1.102287146,1.037932355,0.898499913,0.910075052,1.023381606,1.02919203,1.01787886,1.091023851,1.149707991,1.109389551,1.095460488,1.101410189,1.104388206,1.107544751,1.112741085,1.13027998,1.140162385,1.157582261,1.173002865,1.184110916,1.19142934,1.198070367,1.20910969,1.215404144,1.223784879,1.230587975,1.234514347,1.239240935,1.214670918,1.249113211,1.251994999,1.252044379,1.254272827,1.265606255,1.272843645,1.28367314,1.303677255,1.315488027,1.325170378,1.317111248,1.30413434,1.29770223,1.326199769,1.358565437,1.313392526,1.249489261,1.268590602,1.316587057,1.401104728,1.448076856,1.487036703,1.557323964,1.643040691,1.541156324,1.461842584,1.447360208,1.469604110,1.432176377,1.506995236,1.604221389,1.709060982,1.753114604,1.692686957,1.603512337,1.575442762,1.5600842,1.558295111,1.56248991,1.577818084,1.146771996,1.706804678,1.657067249,1.602755171,1.588227213,1.586981308,1.585502429,1.580131364,1.578013073,1.577588908,1.580770777,1.583101784,1.585522688,1.595778611,1.614968583,1.67434025,1.737317949,1.829735214,1.934317775,1.914628818,1.749354098,1.104508491,1.584907333,1.600823006,1.543075827,1.560710102,1.502999224,1.400337433,1.28758052,1.210212874,1.074486492,0.820153522,0.948543754,1.231565453,1.548807749,1.754806198,1.105105765,1.428810626,1.457428739,1.438731304,1.453758131,1.39381036,1.29035595,1.327412753,1.359056708,1.026167165,0.758604055,0.101030974,0.59963218,0.598349556,0.73629299,0.897769337,1.113210543,1.343637371,1.280079768,1.303535445,0.94324486,0.787658706,0.683690233,0.57953057,0.535737778,0.492692022,0.441047991,0.407914787,0.390434136,0.382399063,0.376045455,0.355969169,0.332849026,0.30955162,0.288590285,0.269653546,0.243116028,0.221874871,0.232275137,0.223474036,0.19554627,0.179357106,0.178351772,0.178122596,0.197629109,0.20123261,0.201161705,0.180297865,0.176013168,0.194616906,0.180178846,0.168046468,0.160635614,0.153561559,0.144509757,0.135699793,0.122016365,0.091065002,0.010939525
1.302512385,1.135619391,1.224039378,1.163374958,1.281451023,1.169960274,1.12026716,1.108694427,1.046289033,0.998564804,0.949128721,0.916584524,0.920481775,0.931730371,1.014102805,1.097158413,1.046872735,1.155089185,1.124960828,1.211855088,1.169781745,1.154302898,1.264579396,1.201042293,1.23781017,1.252476141,1.286056059,1.004587943,0.8333748,0.829694063,0.885471092,1.009522182,1.054288654,1.09101143,1.123322413,0.969955843,0.971907,1.081071807,1.172253296,1.261746989,1.349093269,1.258009275,1.120639413,1.081563079,1.067820141,1.065482804,1.039401105,1.045453310,1.03967333,1.018599307,1.006111137,0.968108154,0.954289603,0.951729421,0.953947739,0.928930883,0.944597123,0.992839213,1.024113448,1.040701455,1.057153981,0.997506291,0.86925787,0.886901857,0.997487299,1.077646835,1.101355744,1.11461754,1.161541019,1.203259105,1.201878986,1.218412548,1.24031844,1.249191465,1.227477011,1.257906715,1.268760268,1.280673599,1.311561654,1.325283067,1.300448538,1.210677429,1.278569235,1.283560451,1.284970957,1.303679787,1.316950446,1.111044427,1.045507811,0.934195591,0.936282228,1.01800421,0.995831157,1.020404856,1.04646503,1.071374262,1.068967286,1.081209819,1.093237105,1.106301379,1.117771552,1.12582815,1.134169634,1.149623158,1.163412943,1.172892708,1.172697719,1.186826836,1.196928288,1.204548059,1.213513762,1.220511847,1.224745897,1.230755108,1.236343953,1.235553867,1.239337163,1.246299796,1.237679756,1.247536837,1.249382904,1.273060159,1.268100241,1.281338335,1.290840891,1.299591346,1.28187772,1.26122533,1.293882215,1.32794201,1.339894592,1.287609642,1.245802194,1.314425716,1.365820553,1.408102457,1.491006310,1.557749395,1.605873732,1.670586075,1.582276245,1.531021952,1.473815425,1.546433693,1.537650317,1.472310934,1.554262381,1.637375876,1.736758305,1.758593292,1.648777678,1.608176883,1.592929744,1.569001788,1.567719165,1.577036861,1.613694823,1.67868319,1.651888146,1.591344507,1.590104577,1.587432062,1.592025703,1.585135242,1.581130367,1.578076381,1.578950034,1.58370701,1.610277448,1.616405679,1.609416457,1.652069702,1.735033791,1.8029356,1.867322539,1.831374895,1.705530918,1.628954624,1.551718658,1.521344105,1.462741025,1.496597502,1.638045677,1.634468765,1.459373510,1.279820205,1.064839593,0.843039425,0.977327446,1.324596806,1.599037716,1.859277337,1.733315607,1.688484561,1.587087106,1.489670323,1.393711064,1.327646994,1.145192853,1.073492553,1.13756042,0.978887359,0.7590776,0.642571578,0.6493924,0.705730339,0.850223636,0.984819334,1.083854834,1.330798474,1.488054698,1.339044996,1.138563221,0.978841777,0.735778928,0.636041973,0.56910969,0.476173654,0.462348417,0.42909137,0.401957489,0.384624978,0.370214773,0.360009496,0.342628872,0.319364386,0.299650222,0.270946299,0.261619739,0.255143314,0.242879255,0.227301648,0.217761107,0.195239859,0.188765910,0.17415444,0.154480794,0.208725765,0.20800785,0.200761597,0.18822658,0.180532105,0.167125967,0.155080955,0.151358435,0.14313597,0.133225709,0.121244006,0.090193881,0.070435402,0.077874112
1.100111106,1.108382951,1.095706123,1.053617587,1.049496225,1.03768672,1.018441036,0.995232262,0.957432221,0.935774496,0.925540098,0.942751056,1.007100921,1.042343108,1.25882595,1.300149724,1.241891015,1.234000285,1.175398446,1.333078834,1.240161436,1.285901052,1.346468512,1.246741687,1.283156545,1.151979488,1.188246205,0.950260671,0.840289318,0.867952456,1.049163224,1.077829163,1.215868825,1.125430575,1.046595445,0.910232056,0.974885017,1.112595477,1.202451292,1.252127946,1.318688888,1.29689695,1.134345631,1.09709004,1.067282022,1.051746198,1.063106215,1.065118149,1.045290031,1.031728155,0.996484497,0.985689189,1.019183008,1.017212858,1.016311464,0.962256303,1.005314721,1.018547394,1.040659671,1.056310716,1.051552475,1.024479369,0.875154393,0.885901587,0.977904816,1.062640267,1.094465283,1.107381416,1.171208711,1.224859852,1.23016381,1.242627922,1.253439691,1.260910055,1.256306285,1.28047861,1.291638574,1.301622272,1.331378377,1.351828182,1.320560277,1.286530871,1.28705253,1.296399348,1.295943529,1.310313217,1.333543516,1.240508365,1.08700125,0.99724926,0.900575155,0.950037827,0.972185556,1.016401247,1.043097036,1.050582593,1.064293877,1.082234145,1.096710191,1.10581897,1.1122017,1.116794074,1.127310538,1.14020037,1.146821139,1.160952788,1.173685327,1.184987101,1.196521849,1.207023408,1.213354225,1.215821977,1.220088948,1.226729975,1.227621354,1.230352468,1.233239321,1.239586598,1.246036434,1.222148996,1.22469525,1.253923365,1.251025358,1.26499723,1.22376462,1.194355444,1.204932972,1.225073833,1.225287815,1.224016587,1.268623522,1.221153791,1.299571087,1.350949464,1.400241204,1.447320957,1.513062691,1.607558995,1.708672269,1.725314601,1.706842103,1.594040169,1.545776554,1.529520282,1.627338999,1.541529842,1.527350078,1.146360493,1.749451593,1.787209851,1.690307836,1.680785021,1.637375876,1.597729769,1.5828093,1.580929047,1.58862099,1.658489151,1.649342386,1.625571435,1.609298704,1.587552348,1.626483073,1.631394521,1.58378298,1.578525869,1.581156957,1.585045344,1.591034297,1.632390991,1.650550306,1.646154187,1.70497254,1.784207777,1.835340519,1.878791447,1.847517212,1.712504946,1.587438393,1.410123483,1.399292848,1.426283652,1.503836158,1.692947787,1.463025181,1.155218334,0.970889005,0.872524571,1.144329329,1.413125683,1.716042606,1.835384835,1.84086479,1.753336182,1.55452321,1.377695899,1.257487615,1.22635519,1.069730782,0.930043841,0.914567526,0.860797310,0.747475745,0.653433993,0.731334694,0.842882421,1.054357026,1.233583717,1.239842363,1.45304908,1.541097055,1.490551037,1.414627235,1.050278714,0.782865011,0.63227767,0.537074846,0.410501432,0.431787031,0.401129418,0.401019502,0.395695045,0.389733947,0.38028457,0.365270405,0.347233908,0.327998354,0.301044268,0.267027523,0.251728471,0.247571657,0.241770096,0.221341817,0.209381637,0.200485574,0.181689378,0.145931659,0.158441468,0.162181064,0.170788978,0.165369799,0.131284681,0.116042606,0.107399775,0.10368232,0.106027254,0.099206432,0.082333539,0.092516025,0.091094123,0.088565595
1.003300255,0.997112514,1.006341579,0.995848883,0.981445009,0.967415919,0.964786098,0.988336736,1.004047291,1.04,1.104383141,1.100552997,1.125048193,1.089722235,1.152753114,1.378810123,1.459910419,1.331188453,1.260470696,1.399121916,1.352552427,1.338235918,1.213891078,1.109065413,1.12621433,1.0279246,1.027825839,0.90139183,0.857347071,0.848840986,0.980202903,1.13672222,1.309846003,1.19282212,1.085112135,0.982777013,0.978413814,1.077212541,1.160828704,1.194756817,1.278283082,1.301462168,1.150530997,1.085180507,1.06897235,1.082367092,1.074897995,1.062899831,1.048131301,1.015235111,0.978902553,1.011618948,1.027311777,1.033117136,1.001212351,0.985433146,1.03054809,1.036991596,1.049646899,1.062280677,1.061691911,1.035146796,0.921331371,0.892918105,0.946752133,1.055604197,1.072884795,1.113490654,1.155785575,1.220519444,1.241926468,1.253749901,1.263272716,1.27576595,1.276176187,1.296786794,1.313068389,1.329853916,1.35807923,1.364574648,1.325101649,1.311304623,1.296991912,1.299967396,1.31047402,1.309877657,1.295802985,1.245779403,1.111067458,1.03355143,0.9593302,0.899308991,0.982024912,1.029136318,1.040425431,1.052556542,1.065353655,1.07758606,1.085053891,1.092430559,1.103157495,1.103094187,1.116732032,1.131182755,1.142965671,1.159627115,1.167929348,1.17901081,1.193032303,1.193360239,1.199061773,1.208280708,1.209549404,1.214141779,1.214505168,1.218710096,1.223453144,1.231267904,1.235365209,1.230822215,1.210108693,1.234199073,1.239843629,1.247810329,1.181479828,1.179052593,1.20207904,1.214519095,1.213083210,1.221209503,1.218063087,1.272985455,1.320010762,1.344751595,1.422178751,1.474829622,1.537288195,1.628253169,1.786426096,1.915067028,1.82065429,1.146568143,1.622018581,1.576375924,1.681052422,1.650045107,1.612894608,1.588180365,1.107348496,1.727887565,1.810685786,1.738471146,1.679037716,1.103367678,1.146087001,1.61069908,1.587313043,1.61891015,1.712648022,1.107625785,1.635946378,1.587934729,1.593562825,1.600115221,1.583010331,1.580580852,1.621788139,1.710962759,1.621857778,1.596335723,1.606068721,1.648854914,1.705056107,1.814136081,1.796267983,1.724609468,1.914992324,1.950900717,1.740760648,1.519845528,1.409241093,1.352089011,1.369892534,1.432349841,1.389183799,1.215435798,0.914685936,0.889882405,1.035387367,1.27412247,1.413609357,1.48127510,1.64836111,1.586331710,1.439074435,1.36003292,1.153845813,1.010822405,0.985534717,0.878636342,0.798380577,0.735410186,0.694531124,0.728845417,0.86052894,0.881116756,1.069349107,1.33398794,1.514922685,1.650551572,1.745688555,1.105146707,1.358256493,1.023249925,0.800231708,0.624774386,0.52797493,0.460182011,0.396228099,0.346567906,0.342146463,0.365805992,0.375985946,0.371209977,0.381955906,0.368633335,0.350246111,0.315779877,0.278567336,0.250500293,0.240407705,0.230945106,0.232024437,0.212724309,0.200776791,0.192241584,0.142991092,0.133676464,0.133881582,0.130050172,0.120210527,0.119489103,0.131035247,0.131128943,0.122245541,0.098637925,0.103178387,0.105261225,0.10224016,0.094370954,0.088060396
